# .PCD v0.7 - Point Cloud Data file format
VERSION 0.7
FIELDS x y z
SIZE 4 4 4
TYPE F F F
COUNT 1 1 1
WIDTH 1556
HEIGHT 1
VIEWPOINT 0 0 0 1 0 0 0
POINTS 1556
DATA ascii
7.8023577 3.0339601 -0.88639897
7.8197007 3.1425819 -0.88755137
7.8281555 3.3923998 -0.85700721
7.7911668 3.5674551 -0.82798785
7.7598515 3.7757554 -0.81550235
7.6764727 3.8977473 -0.80244833
7.544311 11.899721 -0.81361753
7.4002981 12.16339 -0.82486683
7.4536858 12.820698 -0.80015516
7.955905 0.61880958 -0.79111195
7.8285742 1.1448869 -0.68722242
7.901257 2.5376503 -0.72755438
7.7709274 4.1912513 -0.7496931
7.7917395 4.3364253 -0.76600856
7.7587862 4.6022496 -0.70356941
7.7519331 4.7402625 -0.70234507
7.7721434 4.9490023 -0.67247158
7.7112641 5.1446657 -0.66895127
7.7449737 5.403522 -0.64410251
7.7496181 5.6551991 -0.62203819
7.7696543 5.7970667 -0.6104036
7.7006273 6.0562572 -0.61041278
7.7241826 6.1656065 -0.60407388
7.6891065 6.3671088 -0.61040419
7.6603088 6.6028481 -0.60409421
7.6366057 7.2346358 -0.61577213
7.7175179 7.3722682 -0.60338807
7.6526399 8.1392956 -0.60128683
7.5892572 8.3291302 -0.60220534
7.5112 8.9322014 -0.62690443
7.6050248 9.1819019 -0.64818311
7.5676041 9.350481 -0.6556434
7.5672855 9.7511883 -0.70935434
7.5196495 9.986454 -0.72861254
7.4766078 10.193443 -0.73676723
7.6431932 10.290327 -0.74596202
7.4979324 10.632274 -0.7676509
7.5813041 10.76622 -0.77190202
7.4778266 10.981591 -0.74253392
7.472177 11.300897 -0.77803224
7.5418043 11.54205 -0.76917702
7.4873023 11.699607 -0.75211644
7.5443001 12.00572 -0.77031702
7.4136209 12.225038 -0.7664488
7.5080037 12.454949 -0.7514835
7.5358386 12.524477 -0.73263925
7.4450965 12.824182 -0.75958955
7.4357557 12.952229 -0.68320209
7.3432865 14.704149 -0.67325056
7.8656602 0.63306737 -0.46715769
7.8667989 1.1130526 -0.55642378
7.9114799 2.5507569 -0.42907214
7.6725802 6.6013861 -0.59351623
7.6859488 6.7610803 -0.58218974
7.6437473 7.0067496 -0.56596029
7.6757612 7.1435618 -0.56673676
7.68117 7.4135189 -0.56718606
7.674211 7.6001763 -0.56291193
7.6705685 7.7215562 -0.57354802
7.6154652 8.0534267 -0.58571517
7.6139235 8.397563 -0.59631234
7.5072303 12.366771 -0.48036844
7.4707122 12.982454 -0.51129806
7.4817724 13.579845 -0.50976712
7.4536495 13.773474 -0.49391568
7.9113779 0.63560891 -0.34133738
7.9543328 1.3885784 -0.23157538
7.3881812 12.079643 -0.29582173
7.3760529 12.403749 -0.36056504
7.5086951 12.869423 -0.23345384
7.4635801 12.986683 -0.2953867
7.4465537 13.789227 -0.29359022
7.4449897 13.886688 -0.29736713
7.400424 14.312415 -0.29611573
7.8772273 0.62472612 -0.11997458
7.8424697 2.3716974 -0.18660939
7.4571676 11.882704 -0.10969198
7.5301976 12.330503 -0.058052756
7.4705095 12.579236 -0.1498684
7.4819074 13.029388 -0.11263356
7.3949327 13.096617 -0.071325883
7.3501458 13.437233 -0.060584433
7.4041395 13.621963 -0.063731514
7.4497595 14.189357 -0.13345838
7.4024324 14.318661 -0.14459062
7.8872976 0.62725216 0.12357804
7.8202252 0.67490935 0.12467825
7.4861622 12.162235 0.099908829
7.4345193 12.312879 0.0097794384
7.4892526 12.833565 0.099924847
7.4699841 12.987759 0.092370078
7.4341578 13.116777 0.019454457
7.4509749 13.736418 0.034935936
7.3974619 13.992658 0.088678338
7.37082 14.169943 0.14485471
7.8682032 0.62387139 0.29727489
7.793849 0.68373024 0.36343125
7.5965176 11.451639 0.3209146
7.6019878 11.506432 0.32465553
7.4257531 11.862633 0.2588999
7.4338808 12.137503 0.2134551
7.4524159 12.973228 0.29584181
7.4306583 13.191023 0.31121656
7.3740726 13.530526 0.27153048
7.4446778 14.041347 0.2642574
7.4202294 14.098487 0.34651172
7.8786335 0.61951828 0.48605642
7.8207994 4.0195365 0.51531559
7.7909698 4.1059904 0.49559754
7.6423488 5.0508852 0.52275366
7.5970912 11.19857 0.52170914
7.5714378 11.391445 0.51920933
7.5962625 11.476143 0.48757675
7.4122787 11.806047 0.57514846
7.4290423 12.19966 0.49762937
7.4367752 12.534036 0.40630263
7.4204993 12.835624 0.40176854
7.4038744 12.946672 0.51129228
7.425808 13.17009 0.56385911
7.4730606 13.324588 0.57514453
7.4518266 13.657943 0.40106559
7.3991861 13.991906 0.50128764
7.358017 14.090463 0.4886193
7.899859 0.62110138 0.73006958
7.8860135 1.9140946 0.79561979
7.8653107 2.1936045 0.78986573
7.8683219 2.3460512 0.77278221
7.7303452 2.8356497 0.7273491
7.8007469 2.9955657 0.7758947
7.8816991 3.1353042 0.67097199
7.7712846 3.9877732 0.6769231
7.7461419 4.14289 0.70924407
7.7157607 4.4022274 0.74060786
7.6769328 4.5197635 0.74879056
7.6631179 4.7927556 0.70745867
7.7199078 4.9646392 0.69426996
7.6006474 10.965161 0.63451481
7.5783358 11.092635 0.73327386
7.5568395 11.379952 0.70084679
7.4902472 11.588473 0.67063105
7.4383492 11.728644 0.66946322
7.429256 12.190479 0.73490953
7.3806992 13.361692 0.69153059
7.3799973 13.598413 0.69116473
7.3510718 13.821589 0.61544782
7.4363861 13.972295 0.72673762
7.8631902 0.61507213 0.88796079
7.8979163 0.70674264 0.84923393
7.8611646 1.8199693 0.8772372
7.8961477 1.9804466 0.87228549
7.8122058 2.1103094 0.87689072
7.7885394 2.3721504 0.86194569
7.7996101 2.5640838 0.88188499
7.8169589 2.8686202 0.80026066
7.7564774 2.9872639 0.9156009
7.7149487 3.1163368 0.97127825
7.7913275 3.7059965 0.84683627
7.7794828 4.0125952 0.93213326
7.739666 4.1381593 0.86526704
7.7297163 4.3904715 0.87872428
7.6777453 4.5168166 0.8618353
7.6652679 4.8415871 0.83873409
7.5557432 10.04827 0.94746733
7.555913 10.164452 0.9779157
7.6291537 10.320354 0.93661183
7.6203423 10.839185 0.84576881
7.6168251 10.896317 0.84522766
7.4976659 11.62283 0.90931994
7.5014472 11.704842 0.93335873
7.4705276 11.949167 0.8725794
7.4813991 12.210133 0.94572306
7.399539 12.910347 0.87473381
7.9400721 0.6024853 1.0323131
7.8248177 2.3800557 1.0957137
7.7941542 2.5071173 1.0889559
7.7810965 3.3913815 1.1293774
7.7413349 3.8153839 1.0759417
7.7853456 3.9687872 1.0916264
7.7977519 4.1234269 1.0604696
7.7367687 4.3701911 1.0725833
7.6671333 4.5046511 1.0920068
7.5958886 10.004961 1.0965692
7.5228477 10.183299 1.0748504
7.5523286 10.379047 1.0766089
7.5282445 10.573275 1.120863
7.5943274 11.466806 1.0292087
7.4532666 11.695126 1.051226
7.4831052 11.942626 1.1234183
7.4695058 12.12711 1.078015
7.8042517 0.64040321 1.3306215
7.9564142 0.70697677 1.2669655
7.7575068 2.4117842 1.2668191
7.8472691 2.7592232 1.2675878
7.7707686 2.9989119 1.2623894
7.8615546 3.165735 1.2236986
7.7990036 4.1598539 1.3272364
7.7035928 4.4002876 1.2971461
7.6931753 4.4889655 1.2399964
7.7148438 7.7443328 1.3687986
7.688127 7.8960862 1.3744951
7.643858 9.4788399 1.2979834
7.5397134 9.7804346 1.2654066
7.5276656 9.9896469 1.2959809
7.5434084 10.173264 1.2620785
7.498858 10.400764 1.2383128
7.5245271 10.523727 1.2969584
7.5965319 10.692772 1.3113528
7.5011659 11.976128 1.2966125
7.4942098 12.152267 1.3000823
7.4949455 12.308387 1.2654486
7.8731623 0.61137235 1.4419833
7.7184196 2.9112985 1.5668834
7.7160993 3.2365994 1.5106268
7.7565279 4.2147946 1.5537527
7.6988597 4.3931484 1.4713639
7.6645951 4.5414982 1.5171297
7.6893826 7.5797381 1.4911951
7.6300297 9.2917585 1.410991
7.5692501 9.5941772 1.5063025
7.5324121 9.7539082 1.4332734
7.6007714 10.009753 1.4878124
7.475718 10.419451 1.4358913
7.5997219 10.54814 1.4931611
7.4858532 11.994952 1.4804723
7.502336 12.155333 1.4685327
7.4152064 12.315456 1.5537766
7.8138003 0.63139147 1.7345457
7.9754195 0.72388256 1.6925581
7.8937955 2.6213262 1.7118207
7.7772374 2.6862535 1.6639599
7.7652221 3.9950068 1.647841
7.7746372 4.1981125 1.7547883
7.6735406 4.3676114 1.6802791
7.6632767 4.4872561 1.7832265
7.6290569 8.1838608 1.7026961
7.5684161 8.3120775 1.6416782
7.5314541 8.5647478 1.6770489
7.5231085 8.7481594 1.6344116
7.6584101 9.6071472 1.6279807
7.4955597 9.8598585 1.6215334
7.5495043 9.9632339 1.666785
7.4647951 12.152347 1.619815
7.4705749 12.418809 1.7127455
7.8836627 0.63221681 1.8473738
7.8778663 2.9724448 1.9664749
7.831799 3.1232047 1.9502187
7.7467756 4.006453 1.831876
7.6594634 4.1821079 1.8876971
7.8154664 4.5037813 1.9264752
7.7270613 4.7311587 1.8550931
7.6518431 8.3463049 1.8694214
7.4831305 9.4133587 1.9121394
7.6275249 9.5947819 1.8754395
7.5933161 10.201387 1.9848623
7.5842333 10.4185 1.9522246
7.5278611 11.395617 1.964309
7.5482421 11.545461 1.9114748
7.404397 12.344008 1.809193
7.8573489 0.63096368 2.0846074
7.9638085 0.71767592 2.1069295
7.837585 3.3485019 2.1189556
7.86273 3.5347767 2.0590472
7.6905537 4.2074223 2.0618269
7.7786884 4.6115999 2.0300126
7.6376529 7.5774684 2.196579
7.6313171 9.8059254 2.1806877
7.5141053 10.353481 2.075587
7.9004054 0.61892903 2.2889364
7.8813567 3.4088435 2.2851992
7.8247876 4.1580935 2.2452791
7.5459113 7.6288109 2.2226532
7.594059 8.651885 2.2500968
7.5931563 10.310233 2.3981063
7.5604105 10.598268 2.2850327
7.9419651 0.59566081 2.5921254
7.9457369 0.70086384 2.5474482
7.682961 8.444766 2.5096426
7.4690456 10.045364 2.4710841
7.9556656 0.62797934 2.7617068
7.8937545 0.63611871 2.9678268
7.937181 0.70161963 2.9855249
7.7944212 0.69864833 3.0175636
7.6860228 8.8531847 3.0235038
7.4950929 9.5569391 3.1756253
6.8721414 29.897953 8.0254564
5.0688181 79.262535 19.661495
5.1520681 79.34256 20.554714
5.1337943 79.430046 21.533688
5.0911808 79.389427 22.291447
5.0711265 78.917732 25.642698
5.1860642 78.931664 28.446079
8.0757637 1.0357156 -1.0249916
8.0810814 1.2197793 -1.0615993
8.0898209 1.3811263 -1.0598624
8.0216656 1.6378558 -1.0646138
8.08354 1.8126113 -1.0487479
7.9607706 2.1526527 -1.0087578
8.1065664 0.6620878 -0.87833023
8.1387415 0.81611598 -0.91556901
8.1200619 0.98629832 -0.87840456
7.9784408 1.7904465 -0.99556363
8.0289221 2.2041516 -0.88845432
8.0455427 2.3583817 -0.92628574
8.0167351 2.5638926 -0.88052762
8.0467815 2.7628722 -0.88493729
7.9980659 3.1538243 -0.89179534
8.0162086 3.3763936 -0.85399967
8.0217724 3.5260301 -0.85802174
8.0349855 3.747036 -0.82668984
7.9482965 3.9722891 -0.80978417
7.9132199 4.4888864 -0.8064366
7.6031256 11.84507 -0.80073476
7.6557236 12.379288 -0.80464274
8.0897169 0.65411645 -0.74782288
8.165513 0.70579034 -0.75266498
8.126358 1.0126096 -0.70709091
8.0385704 1.2200655 -0.78789043
8.139677 1.3311222 -0.7841543
7.979363 2.4669814 -0.68086827
8.0303583 2.5454242 -0.71404141
8.0763102 2.8080368 -0.78904384
8.0575638 3.6777411 -0.79850131
7.962512 3.9548199 -0.78999472
8.0052414 4.1974554 -0.75558722
7.9225459 4.3844347 -0.72261298
8.0239506 4.5077133 -0.74162757
7.8856344 4.8059788 -0.6969167
7.9162335 4.9530897 -0.69135672
7.9652534 5.2580223 -0.65164971
8.0109844 5.4354043 -0.63913828
7.9706845 5.6255822 -0.63791406
7.8629985 5.7397056 -0.62907648
7.9376931 5.915566 -0.63723582
7.8388076 6.1991086 -0.60086983
7.8954573 6.3184075 -0.6116643
7.8204417 6.52211 -0.61966819
7.884532 6.6933579 -0.61212409
7.9157252 8.0700045 -0.60910422
7.7696834 8.2095804 -0.60531008
7.7948141 8.3807421 -0.61568534
7.8431401 8.5986061 -0.62187314
7.7555346 8.7589865 -0.63126069
7.7895093 8.9960213 -0.64168948
7.8388147 9.1717625 -0.64655977
7.8356438 9.3945446 -0.67877185
7.7026238 9.634656 -0.70135182
7.6736073 9.7782278 -0.72219121
7.7533607 9.9825974 -0.73141831
7.734416 10.121457 -0.73076701
7.7253671 10.420849 -0.75245053
7.7022567 10.567838 -0.75407267
7.7949629 10.978978 -0.74745756
7.7683363 11.200483 -0.78868818
7.7189198 11.351454 -0.78360534
7.7545443 11.705377 -0.75905883
7.7144032 11.920563 -0.77067208
7.6256313 12.167555 -0.75313383
7.6027961 12.353613 -0.75909293
7.7133985 12.595543 -0.76856428
7.7236795 12.821687 -0.74239522
7.6471472 12.975892 -0.73767078
7.562645 13.093225 -0.71810848
7.6454687 13.380617 -0.70796192
7.59834 13.598141 -0.69543368
7.5336461 13.712094 -0.62636954
8.0944138 0.64353776 -0.47931817
8.0822144 0.82631862 -0.48077911
8.1028452 0.99104071 -0.50001276
8.0257778 1.2174542 -0.51035643
7.9952168 2.4616902 -0.48539734
8.0299969 2.5347357 -0.49669835
8.0851231 2.8147883 -0.42155716
7.986064 6.0800653 -0.59590435
7.899817 6.4040456 -0.59486133
7.9514923 6.6054745 -0.59052092
7.8202305 6.7550383 -0.59347397
7.7865419 7.008894 -0.57799041
7.8781829 7.174067 -0.54911101
7.8915319 7.3842115 -0.54313952
7.8620334 7.6120291 -0.55135465
7.7845483 7.7227149 -0.55323547
7.8231139 7.9598556 -0.58695418
7.8571887 8.2422028 -0.59709662
7.7836919 8.2965765 -0.59372336
7.7605505 10.934995 -0.59952623
7.5990653 12.436311 -0.48059568
7.7161026 12.60363 -0.49301326
7.5855966 12.817144 -0.41777104
7.6740913 13.459419 -0.58030879
7.6896338 13.624715 -0.52400225
7.6221972 13.686409 -0.51744711
8.1043177 0.63489056 -0.27828956
8.1200943 0.72163379 -0.27289173
8.114069 0.99289382 -0.34465432
8.1315804 1.4052994 -0.39308742
7.9945812 2.4434457 -0.30085525
8.0766935 2.5352497 -0.29205137
7.7460198 12.736081 -0.24967991
7.5590277 13.026761 -0.24822901
7.5516238 13.34495 -0.23486528
7.6154027 13.642951 -0.27569553
7.6386175 13.743121 -0.28606811
7.5794291 14.35491 -0.32452285
8.1003885 0.63748121 -0.08322148
8.1345091 0.76663673 -0.070026569
8.1318007 0.95840675 -0.075451888
8.1249762 1.1947559 -0.1095477
8.1216593 1.3939025 -0.02930784
8.0304537 2.4357212 -0.099979989
8.0601292 2.5030689 -0.15923618
7.6916809 11.86156 -0.12989646
7.6608043 11.876438 -0.11089157
7.7490087 12.642755 -0.17616186
7.7087331 12.793531 -0.14349049
7.5515118 13.174738 -0.022655305
7.5646272 13.642455 -0.080322742
7.6799479 13.722252 -0.13853805
7.710103 14.064142 -0.13300492
7.591392 14.197472 -0.12242197
8.0642567 0.62169856 0.12154265
8.1412468 0.76254177 0.077983111
8.1238194 1.0347027 0.069122583
8.1350698 1.3988596 0.090701446
8.1115551 1.5879084 0.012847843
7.5825443 12.966221 0.14574349
7.59831 13.084515 0.055811893
7.6946101 13.871203 0.034437958
7.5808773 13.977487 0.084700659
7.6114511 14.116176 0.10335559
8.1059561 0.62421674 0.29166114
8.102273 1.2193077 0.26975933
8.0658312 1.4451642 0.23947446
7.8308964 10.646906 0.3616156
7.6694369 11.426602 0.35721356
7.648272 11.548712 0.32179177
7.6098742 12.808644 0.39013359
7.6192331 12.990679 0.21535857
7.7197399 13.149276 0.22500347
7.6611509 13.762192 0.28414252
7.5657082 13.958647 0.34796831
8.0977945 0.6211201 0.51096797
7.9300904 4.0355425 0.50020611
7.9174986 4.080699 0.49654856
7.705174 11.03199 0.59467
7.6944599 11.19478 0.49993235
7.6717892 11.369739 0.49663824
7.7305455 11.574769 0.41826397
7.7196994 13.663204 0.52294773
7.6347122 13.802861 0.54227501
7.5704374 13.903601 0.48482794
8.09268 0.61584663 0.71260583
7.9648342 2.3702078 0.78128833
7.9236231 2.6727087 0.78257751
8.0366468 2.8068118 0.75527006
8.0278292 2.9937766 0.75801468
8.0210524 3.124543 0.7742818
8.0825977 3.3175731 0.73260242
7.9536285 3.8267136 0.68217677
7.9460721 3.928659 0.69367015
7.9609261 4.2750411 0.7440201
7.9857597 4.2881222 0.71845597
7.7285395 11.024674 0.68544984
7.7044344 11.149675 0.66607469
7.6713619 11.360363 0.6972332
7.7191105 11.55325 0.65144652
7.6562095 11.719121 0.64210373
7.5957279 12.379474 0.69233942
7.7046022 13.657399 0.73089194
7.6757717 13.751602 0.67405611
7.6370196 13.927726 0.62585413
8.0910759 0.61407703 0.89408493
8.0850067 0.69143426 0.93336087
7.9575634 1.8777342 0.85605997
7.9381399 2.0457714 0.86453557
8.0530138 2.802897 0.93129945
8.0407648 3.0244868 0.86171478
8.0268393 3.1088612 0.88351703
8.0567331 3.3974156 0.87864166
7.8782477 3.6517572 0.97799033
8.0467958 3.857121 0.86099488
7.984777 3.9845347 0.88435972
7.9823036 4.1416192 0.86008215
7.8952537 4.3374586 0.87595028
7.6583457 10.251008 0.94448215
7.6776867 10.831737 0.88993251
7.7216091 10.988873 0.86719787
7.6897998 11.162435 0.85990477
7.6904864 11.358002 0.89668643
7.6432209 11.621121 0.87317342
7.7516651 11.759587 0.84776354
7.6073399 11.88778 0.82769805
8.070919 0.6159929 1.0916437
8.0644341 1.8040731 1.0964334
7.9353909 2.0260608 1.0173552
7.9489269 2.6213617 1.1051462
8.0119276 2.8209193 1.1097111
7.9922924 2.9832907 1.1019316
8.0373774 3.1657641 1.0943785
8.0554581 3.3496695 1.0657227
8.0231762 3.8192 1.1122459
7.9787588 3.9966679 1.0484797
8.0193062 4.1097603 1.0181301
7.9593482 4.4108353 1.16522
7.8404775 10.076289 1.1786549
7.6673903 10.222676 1.070078
7.7372575 10.59164 1.1221428
7.7446814 10.749619 1.095978
7.6966567 10.909678 1.0277523
7.6777391 11.349824 1.0231274
7.7150707 11.604038 1.0911747
7.711555 11.750235 1.088343
8.0762005 0.61610395 1.2637417
8.1056137 0.69846606 1.3551725
8.0591917 2.1849434 1.2863058
8.0033884 2.2859619 1.2885671
8.0324259 2.5540216 1.3295823
8.003253 2.8636305 1.2747428
8.0003662 2.9939659 1.3063054
8.0324993 3.1496897 1.3248671
8.0321846 3.8046377 1.247537
7.8995709 3.9881759 1.2496625
7.8034039 9.4126892 1.3386867
7.8281827 9.5701771 1.325845
7.7856331 9.7645187 1.3447973
7.8336449 10.064754 1.2651583
7.7481232 10.187319 1.2674965
7.6893678 10.459499 1.3591474
7.7521744 10.608156 1.2889122
7.7709265 10.758606 1.3343278
7.7762518 11.66401 1.2146443
7.7561493 11.75571 1.2918476
7.7214684 11.924425 1.3839532
7.6510262 12.112321 1.3416606
7.7040396 13.437137 1.3921161
8.0827322 0.61814487 1.4520895
8.1088352 2.1438107 1.5784465
8.0393867 2.3426852 1.5391501
8.0175924 2.5567455 1.5369623
7.957634 3.7322712 1.5503111
7.9986305 3.9827168 1.5773226
8.0166006 4.1769967 1.4883937
7.8478894 8.0203152 1.4035287
7.8951502 8.6367779 1.4994788
7.8744197 8.8456297 1.5345163
7.8117571 9.3930016 1.4678005
7.7478418 9.6075993 1.4469687
7.7698441 9.8114042 1.4785805
7.6837459 9.9831762 1.4995685
7.6695151 10.149672 1.438228
7.6525679 10.461828 1.4568285
7.7668467 10.598112 1.506664
7.7602134 10.717536 1.5198218
7.7651496 11.965052 1.469243
7.6821027 12.134184 1.5959107
7.5602574 13.373471 1.5031879
8.0766764 0.63677347 1.7012662
8.0343161 0.72308385 1.7397803
8.0006781 2.2523589 1.7088404
8.0560675 2.398757 1.6636461
8.0327559 2.5809257 1.6802894
7.9469833 2.699074 1.7450141
7.9686213 4.0488825 1.6497883
7.9317265 4.1425142 1.6291947
7.8346691 7.5042343 1.6109153
7.7972846 8.2797232 1.7350712
7.7567525 9.5184097 1.6198684
7.7533345 9.8400421 1.6786221
7.7038312 9.9132586 1.668165
7.7261105 10.465302 1.7948349
7.7386923 10.601349 1.6839975
7.7945595 10.742335 1.7106652
7.6690917 12.175441 1.6669546
7.6767793 12.32594 1.7111415
8.0679893 0.61855567 1.9177544
8.0135479 0.69871449 1.9308034
8.0791464 2.6066222 1.8619037
7.9650335 2.7836347 1.8805271
8.0619287 3.788542 1.8372297
7.9519982 4.0407252 1.9991118
8.0404387 4.1517758 1.9931695
7.9707551 4.3423328 1.8508917
8.0364981 4.5331507 1.8452272
7.981288 4.6965642 1.9089053
7.801909 8.2458191 1.9750497
7.7117376 8.4668274 1.9179406
7.6713071 10.396624 1.9340369
7.7829165 10.606053 1.9136121
7.7900934 10.742778 1.9000179
7.7727075 12.183895 1.8719244
7.6169119 12.384441 1.837255
7.715291 12.609491 1.8968246
7.6068945 12.719523 1.942409
8.0816603 0.63764888 2.1119673
8.057723 3.193115 2.0868723
8.0692587 3.4723523 2.1378942
7.972167 3.8258357 2.1661847
7.9888587 4.1847553 2.1708298
7.9306617 4.5016513 2.0679517
7.8769221 8.3906431 2.0930457
7.8108263 8.5590134 2.0478444
7.8832607 8.9253674 2.1757178
7.7563753 10.367657 2.0362384
7.8011394 10.553473 2.0943017
7.7970209 10.717562 2.04548
8.054594 0.60060906 2.2957876
8.0761719 0.7077173 2.206471
7.998702 4.0364075 2.2210407
8.0243607 4.0940924 2.2219017
7.723937 10.060115 2.2114615
7.8233767 10.190392 2.3331409
7.7253451 10.403881 2.3406792
7.8199534 10.589334 2.3222315
8.1241407 0.61643112 2.4788065
7.7452974 10.006727 2.534601
7.7896876 10.155354 2.4686368
7.783587 10.443632 2.4484527
7.7692266 10.897144 2.4399853
8.1043692 0.69644237 2.640923
7.8239908 8.0155954 2.6075857
7.8392353 10.337844 2.6690021
7.823822 10.833911 2.7312722
8.1096687 0.63302392 2.9369822
7.8822694 8.7704115 2.8305154
6.4361305 45.455429 8.1900654
5.2496891 79.319443 19.516994
5.4119449 79.303337 20.297707
5.3708973 79.318207 20.552635
5.3340945 79.295952 21.232483
5.3114071 79.368782 22.300449
5.2990675 78.8992 25.638699
8.1824808 0.9499833 -1.0228785
8.3499107 1.1199806 -1.042385
8.3125429 1.48678 -1.0286125
8.169383 1.858804 -1.0510947
8.2463665 0.99313599 -0.91896296
8.3273468 1.1765964 -0.83902562
8.337945 1.4629641 -0.90941072
8.1384354 2.2045023 -0.82475412
8.1419954 2.29529 -0.92448437
8.1767759 2.7883112 -0.86694813
8.2877893 2.9456313 -0.87515515
8.1776705 3.1725211 -0.88122517
8.2812643 3.4000881 -0.90248162
8.2549648 3.7279103 -0.84533048
8.2185202 0.65673447 -0.69751281
8.2544889 1.0216844 -0.67073089
8.3190546 1.288764 -0.79596323
8.1374588 2.2075419 -0.79861307
8.127902 2.6526732 -0.6240983
8.173789 2.7829938 -0.69066602
8.2909603 2.9388304 -0.73098743
8.1210041 3.8559034 -0.78191727
8.1593027 3.9874651 -0.79907471
8.122963 4.2039113 -0.76030046
8.1180553 4.3784933 -0.65246695
8.1572266 4.5946131 -0.71386701
8.1543608 4.77073 -0.71899629
8.1181021 4.9777761 -0.68414342
8.127224 5.2140203 -0.65435773
8.1041842 5.405036 -0.64784873
8.1248093 5.5871773 -0.62463635
8.1117783 5.8196697 -0.60441405
8.0949554 5.9278784 -0.61135435
8.077528 6.1541715 -0.61874551
8.0738144 6.3399687 -0.61324191
8.114768 7.873085 -0.61304885
8.0439005 8.056839 -0.60469639
7.9531574 8.1935272 -0.60235578
7.9924669 8.4009895 -0.6145798
8.0091496 8.5551138 -0.62191015
7.9951277 8.8161983 -0.62729686
7.9812093 9.0070972 -0.64297229
8.0646648 9.1737528 -0.65379322
7.9779325 9.8547821 -0.72675347
7.9327526 10.249567 -0.75965196
7.9380374 10.476558 -0.7634117
7.9249959 10.556391 -0.75162202
7.8848181 10.787791 -0.75244701
7.9628239 11.016897 -0.78591079
7.9048624 11.191652 -0.77511984
7.8382463 11.359717 -0.76779848
7.8551722 11.654508 -0.74555176
7.8315697 11.716907 -0.77603209
7.8986239 11.984234 -0.76695728
7.8603172 12.201046 -0.77142197
7.8176403 12.608503 -0.71919298
7.8836823 12.761017 -0.67060018
7.8854513 12.933607 -0.73319304
7.8426661 13.236122 -0.67664891
7.778286 13.578102 -0.62916076
7.8541374 13.702934 -0.62832528
8.22439 0.647039 -0.40027127
8.2880087 1.0059779 -0.49959487
8.2994261 1.4259801 -0.47551924
8.3191137 1.5352972 -0.44670382
8.1545229 2.627568 -0.42723316
8.2185888 2.7754955 -0.50869
8.2981577 2.9125009 -0.56439239
8.1643353 5.9741697 -0.59289312
8.0624237 6.227407 -0.5980286
8.073926 6.3364019 -0.58866692
8.0859718 6.6301827 -0.58807647
8.089551 6.7817211 -0.58623213
8.0909452 7.0279388 -0.5650664
8.0922222 7.1355615 -0.56106645
8.0353394 7.3726215 -0.54332131
8.0234795 7.6345916 -0.55690593
8.0294065 7.9442639 -0.58143109
8.1013155 8.1432648 -0.58094531
7.9257879 8.4209709 -0.59545076
7.8965187 12.45977 -0.44698152
7.9001126 12.660583 -0.42197141
7.8859673 12.731928 -0.5026738
7.820241 13.5251 -0.58257049
7.6996093 15.810837 -0.57950455
8.2083616 0.65178049 -0.39952675
8.2843599 1.0088025 -0.3259595
8.352705 1.1190544 -0.32517314
8.3046932 1.4585474 -0.30126721
8.2758951 1.5375208 -0.2458425
8.3037519 2.3231502 -0.2601856
8.1600962 2.5903296 -0.28915006
8.2538862 2.7681205 -0.32944342
8.2949762 2.9000785 -0.32978034
7.8579278 12.680373 -0.2314782
7.8782978 12.744844 -0.27017361
7.7263446 13.679663 -0.25582293
7.8353572 14.15448 -0.31093913
8.1954565 0.69239563 -0.028418265
8.1861382 1.0249138 -0.091248423
8.1910286 1.1927835 -0.08015006
8.2475328 1.4335289 -0.056691632
8.2146502 1.5099334 -0.09408173
8.2741327 2.2719595 -0.021063395
8.1760931 2.3988059 -0.10082492
8.2461739 2.5505359 -0.17188545
7.9023547 11.769951 -0.15644364
7.9510236 12.648143 -0.00088558049
7.8823318 12.740548 -0.11431266
7.9271998 13.332664 -0.1879966
7.8414693 13.549576 -0.11860126
7.7255144 13.75639 -0.11203623
7.7987099 13.936485 -0.11609589
7.8713336 14.188947 -0.092872828
8.2566891 0.62983859 0.1351274
8.1870451 0.82272506 0.1071343
8.1978188 0.98715162 0.05988336
8.2074471 1.1734433 0.098356806
8.2232618 1.4200956 0.085283592
8.2379179 1.5253468 0.071751408
7.9766097 11.263082 0.14751925
7.9657798 11.38787 0.13805997
7.9185114 12.635282 0.13585752
7.8787699 12.759748 0.082897514
7.8021297 13.029902 0.066995375
7.8681102 13.342239 0.14531606
7.8441238 13.590095 0.099756747
7.8271737 13.818561 0.097599298
7.8157802 13.987317 0.08369191
7.8519716 14.114829 0.040425222
8.262002 0.63702476 0.26725587
8.2848873 0.75582325 0.22175063
8.3603592 1.1456289 0.30628282
8.2322836 1.3965752 0.27025798
8.220355 1.5157546 0.23932849
8.0001383 10.970235 0.35312864
7.913209 11.370394 0.26133594
7.9492922 12.642913 0.29567
7.8612747 12.764589 0.27730772
7.8676276 12.957158 0.20133834
7.9211946 13.172186 0.32638553
7.8839736 13.390688 0.3252573
7.8376951 13.605165 0.30343178
7.7516732 13.831873 0.26914734
7.8017774 13.991837 0.29499513
8.2754288 0.62482601 0.49839154
8.1710997 3.8440294 0.5520339
8.1523495 3.9301648 0.53627896
8.0068455 10.840331 0.53735048
7.9335613 10.987185 0.5440312
7.9320154 11.485838 0.51813477
7.9047375 11.800413 0.56610453
7.8696609 12.42978 0.56138325
7.8665648 12.799371 0.48143363
7.9398909 12.901139 0.52501857
7.9203858 13.399407 0.47039518
7.7565489 13.660256 0.44377691
7.8338537 13.708926 0.52622998
7.787703 14.012885 0.41543204
8.2844038 0.61706674 0.7325328
8.1322956 2.789453 0.71943301
8.2447481 3.0322745 0.76316172
8.1056299 3.179651 0.76934183
8.0941324 3.8395493 0.70372295
8.1108637 3.944875 0.71383816
7.8936191 10.995996 0.73565006
7.8959079 11.13271 0.70665556
7.8939366 11.376194 0.63757408
7.9095211 11.63395 0.66950512
7.8136249 11.759746 0.7755484
7.7865329 12.356427 0.60092503
7.9398661 12.647326 0.70911229
7.9434385 12.808005 0.6023978
7.8229651 13.805191 0.64834487
7.7903161 13.991114 0.69316143
8.2397842 0.61242604 0.90728909
8.1781693 2.7396059 0.82142246
8.1924744 2.9840288 0.86665612
8.1626968 3.1778405 0.90854114
8.1692152 3.3759484 0.952595
8.166482 3.6080992 0.92368799
8.1230536 3.8008924 0.86702853
8.1364088 4.0025573 0.92139596
8.0784569 4.1494441 0.88188964
7.8389211 10.709573 0.95666528
7.8831868 10.995116 0.89696348
7.8669939 11.125953 0.88008267
7.8805866 11.354499 0.90518427
7.8286891 11.615615 0.9254722
7.89817 11.777791 0.9054001
7.9114938 11.926005 0.87803912
7.8861265 12.264526 0.93295252
7.8500366 12.374016 0.94295251
7.8807359 12.736162 0.97170448
7.9155431 13.729233 0.82972926
7.7336235 13.920319 0.84149545
8.2639036 0.62601078 1.0550488
8.2604294 1.9114999 1.1669264
8.15061 2.9867303 1.1461474
8.2062674 3.2012167 1.121093
8.2035341 3.3774621 1.0836869
8.1856251 3.5798678 1.1228931
8.1063662 3.7863097 1.0772673
8.1480789 3.9383571 1.0967939
8.1236668 4.4352074 1.1048113
8.1066408 4.5167513 1.140846
7.8862038 10.642809 1.1545454
7.8967843 10.758145 1.1009812
7.9466968 10.976456 1.0426793
7.8339849 11.099398 1.0256242
7.9724412 11.453378 1.1436604
7.8676286 11.586218 1.1469752
7.8228331 11.848023 1.0248957
7.8321662 12.035102 1.1961273
7.8535829 13.472512 1.0194161
8.2274561 0.64965701 1.3220142
8.2295132 2.0095651 1.2072916
8.2026672 2.1341503 1.3543212
8.210144 2.4178731 1.3191241
8.1607981 2.6422369 1.3305583
8.2202587 2.746397 1.270703
8.1794472 3.1710975 1.2608014
8.2126093 3.3641238 1.2959126
8.2543468 3.5463686 1.3259301
8.1892576 4.1998143 1.3225243
8.1201563 4.3626995 1.2412179
8.1814766 4.5306396 1.2139032
7.9023018 9.6493807 1.3237587
7.9307456 9.7497139 1.3374131
7.9083481 10.190313 1.3891035
7.8511167 10.680716 1.2000144
7.9094286 10.779513 1.2775028
7.912765 10.932686 1.2999592
7.9930172 11.174094 1.356114
7.9564829 11.35149 1.3101798
7.8978777 11.514628 1.258818
7.9448657 12.584334 1.3033264
8.2706261 0.64774972 1.504558
8.2160587 2.0293908 1.5026991
8.1467113 2.2096393 1.5575278
8.2958651 2.4654727 1.446656
8.1269646 2.5163395 1.5484928
8.2501993 3.2728055 1.4722855
8.2388639 3.3034542 1.4721551
8.2240191 3.5780599 1.4371775
8.1360359 3.795233 1.4145638
8.2147369 4.0730686 1.5389156
8.1581736 4.1656632 1.4906095
8.0941772 4.2895513 1.5228631
7.9894214 7.6830988 1.5885582
8.0568647 7.7859735 1.5919657
7.9464726 7.9209843 1.5290555
8.0571079 8.7425022 1.5557245
7.9597902 9.4784031 1.559654
7.8803787 9.5703268 1.5281973
7.9133945 9.7914791 1.5176836
7.9539847 9.916131 1.5300303
7.8530712 10.641699 1.4942535
7.9165201 10.778097 1.4864432
7.9510026 10.928808 1.4878215
7.9997463 11.102841 1.5787686
7.9658322 11.46703 1.434728
7.9580808 11.605311 1.4423178
7.9393144 11.81612 1.5107746
7.8465319 11.995376 1.4837154
7.899189 12.745577 1.4477477
7.7578244 13.399822 1.4339802
8.2859459 0.62949377 1.6941504
8.2871914 0.71987253 1.7067174
8.2165422 2.2542193 1.6684835
8.2724247 2.4256735 1.6875334
8.1681623 2.5704558 1.756156
8.2072315 4.0207243 1.6974573
8.1596127 4.2137747 1.6616793
8.1213617 4.4291334 1.7804104
8.1089802 4.5782065 1.7806236
8.0028191 7.6752281 1.6441333
7.9955773 7.7615132 1.6700155
8.0504436 8.8736601 1.6945266
8.0539322 9.0303507 1.7765894
7.9341316 9.4301691 1.6597415
7.8897357 9.935154 1.6740644
7.9210005 10.586685 1.7265245
7.923871 10.763636 1.6675428
7.9114909 10.935697 1.6606164
7.9791713 11.26475 1.7915456
7.9764981 11.335003 1.696882
7.9728017 11.574936 1.7370396
7.9034181 12.152758 1.7552968
7.8140593 12.578379 1.7954626
8.2919827 0.64028525 1.9489909
8.1493111 2.5845635 1.9177969
8.1548929 3.5939937 1.9501677
8.1458588 3.7945666 1.8977669
8.1386833 4.0846744 1.8317961
8.1052256 4.139864 1.9298972
8.1769104 4.407352 1.8848882
8.1336136 4.5435038 1.8303652
8.0917168 7.955153 1.8784305
8.0041885 8.1591091 1.9039156
8.0649281 8.8079805 1.8211389
7.8995447 10.610423 1.8622142
7.9078326 10.74073 1.8879626
7.9410014 10.939609 1.8810878
7.9894924 11.447313 1.8921169
7.9159241 11.737451 1.9311428
7.8855677 12.221834 1.8543206
7.8890777 12.328736 1.9119657
7.8719296 12.494232 1.8972818
8.2565365 0.6322943 2.0443532
8.3090506 0.70920688 2.1285112
8.1033621 3.1807349 2.06056
8.1699343 3.3270671 2.0225251
8.1712933 3.7356262 2.1876054
8.2189274 4.0899682 2.1758332
8.1411915 4.2013884 2.1836355
8.1742954 4.4473209 2.1659632
8.1613388 4.5606747 2.1427903
8.0411024 8.0403652 2.0835149
8.0825081 8.1831656 2.0500004
8.0536366 9.2862225 2.1516187
7.9009185 9.8823195 2.1202915
7.8753638 10.602554 2.018743
7.9274068 10.729286 2.0771744
7.905571 10.957504 2.0818517
7.8116899 12.441278 2.0102274
7.9029469 12.519394 2.1664908
7.8310637 12.719975 2.0236259
7.8048673 12.954488 2.0704517
8.141881 3.2054682 2.239759
8.1812515 3.4462421 2.2162287
8.1007261 4.1067147 2.3698564
8.0658245 8.1742105 2.2001176
7.9267435 9.3897953 2.3081911
7.8774576 10.422716 2.3143978
7.9237657 10.625624 2.3467
7.934453 10.830661 2.3827078
7.998755 10.948588 2.3217285
7.9499311 11.102324 2.2893581
8.3345118 0.70115846 2.4740486
8.2397413 4.3869109 2.4897752
7.8871279 10.423082 2.5736332
7.9975896 10.548707 2.5289497
7.8331132 10.7356 2.559696
7.9102745 10.985913 2.4411345
7.8964448 11.203942 2.4761226
8.3419409 0.63457286 2.6703551
7.9075379 10.436855 2.7125444
7.9158669 10.59747 2.6221867
7.9647517 10.950397 2.7251849
7.9118452 10.781613 2.8263085
8.2758026 0.58202815 3.1074688
8.2580938 0.59802222 3.3601034
6.8535271 40.244507 6.2126007
7.2184906 29.379631 6.7413001
6.5828333 47.257702 8.929739
5.5855436 79.282791 19.530018
5.5061054 79.306526 19.777925
5.5895858 79.293228 20.550545
5.596642 79.370659 21.519993
5.5445099 79.346764 22.310127
5.6405783 78.865311 25.6308
8.419426 1.0236943 -1.0299312
8.369668 1.1103964 -1.0038749
8.4101114 1.3763233 -1.0129386
8.417161 1.0392622 -0.87767768
8.4168653 1.1358469 -0.94662416
8.4325857 1.4171492 -0.89693236
8.5294008 1.5448942 -0.91946912
8.3452501 2.4805183 -0.91382235
8.4913778 2.7995038 -0.88074356
8.3726492 3.0092213 -0.84151232
8.4121275 3.2572095 -0.89090252
8.4347944 3.369684 -0.88398403
8.2965355 3.6041079 -0.87750196
8.3165655 3.7346535 -0.85964715
8.3069868 4.0498838 -0.81845254
7.9908276 12.230723 -0.80464864
8.4266272 1.0537651 -0.70595127
8.4178886 1.1949526 -0.68093765
8.4283314 1.4384527 -0.68120676
8.4169922 1.5194721 -0.6870212
8.4185495 2.0055437 -0.64881343
8.4422741 2.1583881 -0.68685043
8.4042692 2.8505788 -0.75399381
8.3948307 2.9960966 -0.69259512
8.4293051 3.3870804 -0.79856741
8.4601965 4.1061649 -0.77594888
8.3291178 4.4113808 -0.75529689
8.2977905 4.5960388 -0.72164506
8.3942394 4.8567786 -0.67931724
8.3264666 5.0240498 -0.66042268
8.3213072 5.2041903 -0.64894348
8.3318281 5.4833441 -0.62643844
8.3194256 5.5629292 -0.65165424
8.2844353 5.8515592 -0.62434769
8.2724304 6.4032183 -0.62990534
8.3455448 6.5239301 -0.65334439
8.1797934 8.0287981 -0.61022186
8.2054291 8.2292099 -0.60530764
8.2144461 8.3850889 -0.62032706
8.1576176 8.5837622 -0.62382966
8.2336588 8.7345657 -0.64556521
8.1956129 8.9937077 -0.64890403
8.2210417 9.1585779 -0.68016422
8.1019917 9.3849545 -0.66939938
8.2529011 9.5582495 -0.74382031
8.1495209 9.8047352 -0.75017685
8.0878143 10.025676 -0.76913851
8.0470505 10.307607 -0.75686878
8.2206087 10.546281 -0.76979369
8.1608992 10.821879 -0.7586388
8.1199741 10.976594 -0.76547879
8.0900946 11.179942 -0.72893137
8.1738644 11.389331 -0.77571213
8.0721941 11.559153 -0.75590044
8.1082029 11.798614 -0.77027577
8.0733004 11.971392 -0.74974084
8.0460691 12.155386 -0.73206103
8.1084995 12.457967 -0.69835413
8.0727978 12.576813 -0.68786067
8.066371 12.769488 -0.65986872
7.9787297 12.945697 -0.72895145
7.999218 13.123981 -0.71677196
8.0793257 13.996167 -0.63210666
8.092557 14.101181 -0.65618908
8.4183817 1.0580783 -0.50814319
8.4349585 1.153802 -0.57931221
8.4086008 1.3983022 -0.4915531
8.3875837 1.5473013 -0.51857644
8.4897051 2.0083723 -0.4825193
8.4363232 2.8546047 -0.48414496
8.3800707 2.9845836 -0.49928632
8.3250256 6.0011735 -0.59842438
8.2775879 6.1941304 -0.59317213
8.3502483 6.3361578 -0.59554577
8.2450495 6.588635 -0.58615631
8.268115 6.8420415 -0.57295895
8.3066177 6.9305272 -0.56122476
8.2397022 7.1830072 -0.55641049
8.2231398 7.5473895 -0.57233906
8.2176323 7.7662239 -0.58246577
8.2276058 8.0120249 -0.59165055
8.2871475 8.1005983 -0.59186834
8.0786057 11.80454 -0.41976786
8.0994978 12.600552 -0.50020051
7.961175 12.703367 -0.44297531
8.0605335 13.3353 -0.59384829
8.007061 13.926124 -0.46375394
7.9586821 14.306396 -0.51884109
8.3919926 1.0178739 -0.34857613
8.3934355 1.292869 -0.39625582
8.4283514 1.4882582 -0.36125183
8.4138699 1.5766897 -0.3238689
8.4784784 2.0241592 -0.25445598
8.5083542 2.2011955 -0.26906466
8.4126892 2.8164582 -0.26729533
8.3902102 2.9664385 -0.3318997
8.1025009 11.829413 -0.31208622
8.080368 12.616406 -0.32066539
8.0135221 12.751921 -0.28051695
7.9610915 13.226729 -0.25445974
8.031024 13.37678 -0.2674917
7.9506865 13.693414 -0.23254487
7.9216595 14.186011 -0.21120051
8.4297953 1.5125389 -0.055995069
8.4028883 2.2116168 -0.083622687
8.3320522 2.4168334 -0.12694007
8.3891983 2.6445541 -0.15084928
8.4498205 2.7590744 -0.13991
8.0573616 11.753759 -0.12058032
8.0610905 11.901557 -0.11252348
8.0780869 12.625976 -0.085871115
8.1466398 13.028695 -0.14159591
8.0463638 13.450747 -0.076582968
8.0919037 13.556096 -0.079401009
8.0340071 13.768883 -0.15290585
8.5306635 0.66017401 0.13526179
8.4486713 1.4847271 0.017478952
8.4066944 1.516883 0.096944883
8.1897449 10.887694 0.10035079
8.1810579 10.987629 0.10037451
8.0468616 11.245781 0.10245601
8.0888119 11.355228 0.15295961
8.1116705 11.591696 0.11477698
8.128685 11.730877 0.13543355
8.0746641 11.933288 0.065059133
8.088213 12.600479 0.077660188
8.083539 12.779593 0.0042134612
8.1132507 13.452771 0.0084621953
8.0437927 13.587591 0.16518222
7.9622316 13.748852 0.10549325
8.506052 0.61893457 0.29031211
8.4672785 0.70207691 0.3558988
8.4436245 1.4427738 0.28986949
8.0797882 10.872278 0.37008107
8.1211176 10.988451 0.31002128
8.1475382 11.180773 0.31634051
8.1770716 11.34523 0.28694081
8.1219482 11.642084 0.28605056
8.1039047 11.791737 0.3163864
8.1094151 11.956825 0.31801534
8.1683636 12.458959 0.37215275
8.0764771 12.603222 0.38858387
7.9688339 12.804672 0.21438509
8.0340204 13.26969 0.33942792
8.100503 13.454425 0.20673545
8.0273714 13.602962 0.30367351
7.9544268 13.837049 0.28379202
8.4896231 0.62044424 0.50860006
8.4410934 2.6696365 0.58552271
8.3220043 3.088625 0.56833196
8.1091175 10.827905 0.52253515
8.0665369 10.973877 0.51996803
8.1184511 11.155603 0.50690126
8.1685591 11.333182 0.46659529
8.1185141 11.65459 0.40436482
8.1537523 11.709666 0.47780216
8.1210556 11.911562 0.53376126
8.1700525 12.148116 0.40445358
8.090086 12.431026 0.47143501
8.0870571 12.580063 0.4514505
7.9851341 12.805103 0.48059538
8.0217419 13.610246 0.52304292
8.010602 13.752758 0.53597897
8.4710398 0.62039322 0.69667625
8.4263268 3.0462162 0.77740484
8.4678364 3.1614828 0.72262383
8.1790028 10.855163 0.67527938
8.1258469 10.963195 0.66977245
8.1356783 11.263523 0.66499037
8.1051188 11.379189 0.67795914
8.1314516 11.623198 0.61140215
8.1133022 11.839661 0.71221012
8.1190739 11.948649 0.70541418
8.1236773 12.462881 0.68286151
8.057682 12.631525 0.62804985
8.0537958 13.574238 0.71769404
8.0347719 13.72876 0.63745421
8.4565439 0.49347755 0.84602779
8.4925146 0.61843514 0.90106684
8.4054813 0.70673048 0.81515294
8.4637833 2.6590297 0.89048427
8.420249 3.0015662 0.8964268
8.3732681 3.1867599 0.88144439
8.3285198 3.3901911 0.92411214
8.3872299 3.5964978 0.94484299
8.1849012 10.798758 0.91335541
8.145175 10.976575 0.89673549
8.102931 11.224874 0.91777754
8.1693659 11.380835 0.99063039
8.0146828 11.737223 0.81251466
8.0140219 12.211293 0.87451822
8.0784969 12.546396 0.9341464
7.9963517 13.398068 0.84413642
8.4983406 0.62432241 1.0764955
8.4540482 2.6326928 1.1007075
8.4486208 2.8021507 1.1090701
8.3779545 2.997288 1.1231054
8.3830452 3.2211108 1.1478968
8.3556843 3.3887632 1.0921859
8.3863993 3.6296401 1.1295931
8.2870789 3.7414887 1.1402777
8.3732347 4.0501938 1.1714954
8.2920713 4.1656575 1.1684391
8.2108078 10.657655 1.1968021
8.1586885 10.858452 1.1369969
8.0962162 10.975158 1.1514431
8.0555878 11.210767 1.0975043
8.1107721 11.389292 1.114549
8.0611963 11.595979 1.0888823
8.034646 12.475464 1.0019747
8.0320511 12.859495 1.013154
7.9735265 13.237662 1.0367452
8.4990988 0.62704855 1.3164299
8.4302416 0.70588183 1.22097
8.4245977 2.1057656 1.2957975
8.3320532 2.8147182 1.3004911
8.3423491 2.9831467 1.3460709
8.3638783 3.2001982 1.2467484
8.3808813 3.4202857 1.3006727
8.3951387 3.5764747 1.2928891
8.339324 3.7604935 1.23107
8.3424149 4.0373659 1.3169029
8.384326 4.1752558 1.3075535
8.1648149 10.81706 1.289135
8.0862255 10.982584 1.2871321
8.0982761 11.200593 1.2908592
8.0604525 11.390875 1.2731996
8.0989695 11.51264 1.2527004
8.0626173 11.726044 1.3540312
8.099679 12.620292 1.2838074
8.1216536 12.729259 1.354932
8.460577 0.62162709 1.4947538
8.3424253 2.834023 1.4083626
8.4166021 3.366457 1.4612099
8.3195152 3.6295271 1.400854
8.3910751 3.7896824 1.5372683
8.3381252 4.020607 1.5135707
8.1937914 8.4158783 1.5246866
8.126132 9.5836401 1.587774
8.1552172 9.9980478 1.5484389
8.1012506 10.657476 1.45079
8.0773449 10.839442 1.5504323
8.0776443 10.986191 1.474398
8.0823374 11.181446 1.5108656
8.0962353 11.373926 1.4847399
8.0505428 11.595585 1.5308107
8.003026 11.856943 1.5356939
7.9987736 11.937917 1.4450901
8.5255451 0.61822402 1.7194614
8.47684 0.71256614 1.7326508
8.3252373 2.480561 1.7363847
8.3980112 3.8434486 1.7419347
8.3933859 4.0222297 1.7135202
8.3777237 4.2368803 1.6980287
8.2723751 4.2948561 1.6234922
8.1498156 8.4625511 1.7401731
8.1324635 9.8066664 1.7280859
8.1973925 10.024834 1.6032615
8.2248898 10.60064 1.6719743
8.1014748 10.801984 1.7032441
8.069952 10.977926 1.6973335
8.0621796 11.197806 1.7010945
8.0753365 11.381638 1.6961807
8.0141134 11.584642 1.6888813
8.0779495 11.845201 1.6955545
8.07827 11.932709 1.7761643
8.5068073 0.63173485 1.9171498
8.3171492 3.7475193 1.8197564
8.3452415 4.0594969 1.8081596
8.3227396 4.1812124 1.8404416
8.2800407 8.6503706 1.8784646
8.2039719 8.8373146 1.8778168
8.1416121 8.9927959 1.8625522
8.1825314 9.7648106 1.8751903
8.2503567 9.9058781 1.8118662
8.2405109 10.177073 1.9342307
8.1133566 10.435283 1.9433117
8.1260366 10.74838 1.8005646
8.0832586 11.009692 1.9121439
8.0817156 11.186543 1.9008629
8.0761099 11.373403 1.9305377
8.128643 11.553869 1.810498
8.1796083 11.801311 1.8192025
8.1710997 11.983279 1.915216
8.1029234 12.163211 1.882833
8.0134592 12.298008 1.868757
8.4645567 0.61737257 2.0576758
8.2950869 8.8181009 2.0895035
8.2715826 8.9387121 2.1043348
8.2128353 9.6126633 2.0759907
8.0937128 11.059975 2.0989547
8.0944729 11.151044 2.0512652
8.1546764 11.401415 2.1377695
8.1642237 11.656403 2.1292038
8.162262 11.736487 2.051928
8.1734524 12.256339 2.174454
8.083703 12.35243 2.0771537
8.004528 12.600881 2.1243222
8.4963474 0.61950648 2.3400192
8.3072338 4.3331542 2.3214107
8.2359848 7.8227978 2.3614721
8.2605858 8.1202431 2.3128183
8.2379522 9.4656973 2.2389843
8.0429516 10.674681 2.2966394
8.0656261 10.847126 2.3759856
8.1010981 10.978114 2.3015745
8.1974363 11.338933 2.2751489
8.1288862 11.563092 2.2155068
8.4825878 0.60318661 2.5250065
8.2711535 4.2862062 2.4701433
8.1499205 7.7729402 2.4552858
8.0862331 10.26018 2.587774
8.172204 11.067474 2.4245632
8.1183386 11.13987 2.4859536
8.491581 0.61815339 2.7416947
8.1304226 7.9738541 2.7258654
8.0431623 11.027334 2.7355311
8.1585674 11.18651 2.7663376
8.422924 0.65720916 2.8315015
8.3904171 0.70181322 2.8859203
8.1713638 8.1501398 2.8033166
8.2300243 8.3045111 2.8078284
8.4768801 0.60064006 3.3398097
8.083353 11.051063 3.2852976
7.5717812 29.262821 6.7470531
7.0485692 40.602848 6.8127584
6.895494 46.513065 7.9435129
5.6839404 79.256752 21.223249
5.6437764 78.886452 28.434433
8.5946474 1.4643036 -0.87626714
8.6841869 1.5133154 -0.80681604
8.5442686 2.4566834 -0.94203949
8.6040678 2.8024433 -0.85586619
8.6220427 2.9954612 -0.90054947
8.5651426 3.2172089 -0.89502978
8.5822229 3.3294523 -0.86534196
8.5919085 3.5562329 -0.84693855
8.6053858 3.7646894 -0.83336878
8.5963573 4.0738845 -0.80920905
8.7588282 1.1391599 -0.7144469
8.6778517 1.4952679 -0.72028118
8.7020292 1.515363 -0.68626058
8.7041883 2.6711326 -0.62082011
8.6032591 2.7873027 -0.70383555
8.5789633 4.0363255 -0.78119296
8.5346613 4.1582088 -0.78649354
8.6082382 4.3533721 -0.75960767
8.4653568 4.7702317 -0.7067166
8.4912796 5.014328 -0.66977519
8.4895267 5.2323875 -0.66858882
8.5200777 5.4157581 -0.62381446
8.5589809 5.599905 -0.61156386
8.6029654 5.7795486 -0.62924087
8.5265007 6.1635375 -0.61689854
8.4192915 6.5621819 -0.61432517
8.3300562 8.4025841 -0.61907822
8.4197836 8.816164 -0.64960402
8.4208775 8.9605198 -0.66298628
8.3568211 9.342885 -0.71038646
8.2930517 9.6322746 -0.73227966
8.3851919 10.000099 -0.7634595
8.3493938 10.172068 -0.76638722
8.3024807 10.616524 -0.75483453
8.3265839 10.804818 -0.7596941
8.3326969 11.044397 -0.73456687
8.3009338 11.138 -0.72554737
8.2744465 11.35017 -0.79222989
8.294673 11.567761 -0.723849
8.3209743 11.779112 -0.74169385
8.3086052 11.990719 -0.75104541
8.369113 12.266722 -0.72361529
8.28125 12.42889 -0.65326786
8.2899666 12.596748 -0.64802611
8.2662544 12.783158 -0.67787588
8.2425747 13.129994 -0.69439411
8.1640434 13.759244 -0.62536699
8.2577848 13.9459 -0.68685114
8.1129303 14.112432 -0.69115478
8.6375141 1.5774415 -0.46992674
8.5791893 2.7906768 -0.50959605
8.5145178 5.7942443 -0.5958063
8.5109367 5.9817142 -0.59196883
8.4848204 6.2453723 -0.58593237
8.5169353 6.4059215 -0.58705461
8.4884062 6.6255169 -0.58785784
8.5041494 6.7956295 -0.53938186
8.3913736 7.0044212 -0.56842405
8.4767599 7.1659703 -0.56117338
8.4582052 7.4090166 -0.56993759
8.467061 7.56111 -0.57839316
8.3626614 7.7994299 -0.58687407
8.4966812 7.9917345 -0.54906571
8.4842472 8.1463003 -0.55251271
8.407835 8.3946457 -0.565772
8.295908 10.992437 -0.43522426
8.2720079 11.724467 -0.48477659
8.2941189 12.418164 -0.45065883
8.286541 12.583478 -0.46234506
8.3290062 13.169748 -0.58701855
8.2306166 13.353724 -0.54257601
8.1484194 13.987708 -0.49248657
8.6494999 1.56139 -0.23531175
8.5755644 2.2058535 -0.298962
8.595459 2.7534294 -0.2936689
8.5392456 6.9127946 -0.37216058
8.3094473 10.974826 -0.39527008
8.295332 11.78385 -0.29838181
8.2806349 12.280315 -0.22180866
8.2484236 12.435732 -0.26133877
8.3465757 12.535735 -0.23402858
8.2988119 13.22553 -0.2267881
8.2322254 13.332819 -0.26774132
8.1849489 13.692699 -0.33056349
8.296876 13.707982 -0.21339335
8.6162567 1.4926741 -1.8740071e-06
8.5932045 1.533911 -0.089943513
8.7104435 2.0137465 -0.14356042
8.7162142 2.2546718 -0.12682086
8.622694 2.6785011 -0.15172131
8.6165752 2.7260857 -0.14439711
8.2862158 10.991282 -0.0034388991
8.27703 12.423763 -0.10098821
8.2408686 12.550791 -0.11635637
8.2569265 12.852343 -0.13439067
8.2510777 12.979302 -0.11996678
8.3244743 13.251092 -0.087933853
8.1937342 13.434102 -0.066513546
8.2264385 13.571175 -0.036726952
8.626339 1.480383 0.11121812
8.6280193 1.5236387 0.089070462
8.2536745 10.878469 0.11114203
8.2259884 10.919155 0.11110688
8.3002729 11.575539 0.18102425
8.2065659 12.127324 0.082709447
8.2669506 12.418367 0.11860432
8.297019 12.583534 0.13007133
8.2342854 13.283372 0.15309566
8.1837645 13.415468 0.12181839
8.1463976 13.511827 0.147925
8.6484509 0.47858265 0.34284681
8.7159481 0.6336332 0.33960104
8.7293129 0.72569263 0.26840377
8.6062822 1.4602231 0.26462683
8.2407761 11.237901 0.29283491
8.2545414 11.430554 0.24389492
8.2734709 11.595314 0.2707043
8.312747 11.754205 0.23300198
8.2521677 11.997301 0.31825244
8.2130651 12.125894 0.35991451
8.2539463 12.405974 0.29618338
8.202466 12.540545 0.30543604
8.1590729 13.060846 0.23522416
8.2593937 13.251397 0.30629721
8.19837 13.376913 0.28961232
8.1985817 13.611112 0.33166453
8.6861191 0.62590432 0.52397114
8.5801525 3.2121415 0.57183164
8.2272682 10.883756 0.48790535
8.2389746 11.178387 0.54320925
8.2520437 11.673273 0.43878523
8.3169918 11.847449 0.50984418
8.2034855 11.955445 0.53682333
8.2663603 12.420502 0.48117557
8.2415018 12.537921 0.45013824
8.2625914 12.719218 0.59405571
8.3048201 13.027222 0.49231222
8.3039455 13.192592 0.58809912
8.2152653 13.378376 0.46980453
8.1867361 13.582283 0.47431704
8.651619 0.46489435 0.65198517
8.6997223 0.61978579 0.70723379
8.6404057 2.6157146 0.78975254
8.6280804 2.8128929 0.67663592
8.6172943 3.0036006 0.7179054
8.558238 3.2019632 0.69322431
8.3129044 10.633594 0.73293775
8.3165245 10.808755 0.67323768
8.3083487 10.998839 0.70013273
8.3092499 11.208153 0.74056995
8.2255087 11.438436 0.61722225
8.3225765 11.511721 0.6381458
8.2766953 11.957733 0.72373915
8.311614 12.114853 0.71452951
8.2587738 12.457081 0.67163193
8.299861 12.508592 0.72172868
8.2552118 13.05999 0.79303819
8.3438053 13.173023 0.62470323
8.2230282 13.378543 0.66756874
8.2649965 13.56374 0.7103824
8.6777706 0.62407374 0.88732755
8.5224934 2.594681 0.91744488
8.5510149 2.8068883 0.83290625
8.5811892 2.9957335 0.87591881
8.5699844 3.1956875 0.82996023
8.2701044 10.692328 0.92975688
8.301384 10.852259 0.91772306
8.3235989 10.975009 0.9277783
8.3074102 11.139216 0.9039818
8.3026495 11.417123 0.92976356
8.3885841 11.56307 0.82218283
8.195322 11.976495 0.84737438
8.2077179 12.225972 0.85852635
8.1855564 12.552576 0.87401646
8.3185892 13.078648 0.95128852
8.1620932 13.122079 0.83108628
8.1370802 13.646725 0.85472441
8.6979141 0.6195178 1.1005629
8.565052 2.8219931 1.1405998
8.5672626 3.0634499 1.1431173
8.6625757 3.4977665 1.1834607
8.5445356 3.6571214 1.1828299
8.5974169 3.7374811 1.1744343
8.2788305 10.846169 1.0891261
8.302515 10.932163 1.0856986
8.328414 11.26635 1.1236297
8.2587318 11.651288 1.1315832
8.3770876 11.753464 1.0864552
8.2051582 12.572687 1.0023292
8.6987915 0.60153043 1.3264462
8.65518 3.2517855 1.2481295
8.6052437 3.4398236 1.3897524
8.5547667 3.5932703 1.3335327
8.5649872 3.7577615 1.3345124
8.519722 3.9732883 1.3402436
8.4778318 4.1343327 1.3447888
8.351593 10.826836 1.2724646
8.2802572 11.289063 1.3131177
8.3118763 11.399373 1.3058856
8.2722731 12.206177 1.3199136
8.192831 12.475028 1.3106644
8.2348204 12.545539 1.2204988
8.1884327 12.761513 1.3472805
8.2012253 13.265142 1.3597997
8.2931786 13.358803 1.3289016
8.7162285 0.63411343 1.555799
8.5367289 3.4298961 1.5349518
8.5836372 3.6795423 1.5431691
8.5812769 3.7947736 1.505512
8.5233612 3.9676394 1.4660611
8.3246136 9.9567623 1.5887249
8.2767334 10.715506 1.5692956
8.3018541 11.257263 1.4813093
8.2431593 11.413101 1.4940683
8.2429256 12.54237 1.4177785
8.174367 13.013844 1.4642929
8.7265463 0.62695467 1.7322512
8.6155558 0.72590661 1.6106279
8.5051432 3.8780069 1.6913798
8.5463209 3.9552765 1.7259001
8.4203501 8.7480326 1.708863
8.2712727 9.7801552 1.7845868
8.256711 9.9889746 1.7466081
8.3297052 11.207181 1.6925321
8.2297039 11.362494 1.6471496
8.3212948 11.552531 1.6577193
8.2391491 12.155348 1.7297304
8.2728577 12.860288 1.680263
8.70333 0.63042486 1.9492648
8.2932825 8.9692001 1.9402549
8.3020763 9.8246861 1.9310099
8.4073801 9.9672546 1.8499593
8.2842016 11.146598 1.9118503
8.2759323 11.344688 1.8887559
8.2591572 11.544977 1.9527199
