# .PCD v0.7 - Point Cloud Data file format
VERSION 0.7
FIELDS x y z intensity
SIZE 4 4 4 4
TYPE F F F F
COUNT 1 1 1 1
WIDTH 1259
HEIGHT 1github
VIEWPOINT 0 0 0 1 0 0 0
POINTS 1259
DATA ascii
-5.0649896 -3.8651078 1.5243074 11
-5.081491 -3.7299733 1.5190159 11
-5.1182966 3.9902313 1.4212312 14.04375
-5.0872951 4.0986433 1.4439474 13.330125
-5.0678768 5.4862061 1.4159638 13.5655
-5.1266751 -5.2023716 1.6795403 12
-5.1026392 -3.9036455 1.7060887 10.735833
-5.1095963 -3.6855302 1.6586294 10
-5.0852957 1.6535136 1.6705436 13
-5.1562886 4.136837 1.63869 14.1535
-5.0773892 -13.000625 1.8560433 11
-5.0491948 -5.171669 1.9090037 13.386437
-5.1051087 -3.9311693 1.8287084 13
-5.094532 -3.7674501 1.8114945 13
-5.0135918 3.9905181 1.918402 14.5
-5.0028796 -13.015687 2.0604601 11
-5.1248279 -5.2045269 2.0714111 13
-5.1660905 1.7351017 2.0149939 14
-5.1994071 1.9695073 2.0192997 14
-5.1440363 3.9494801 2.0363836 14.085751
-5.1581974 4.0484638 2.0759566 15
-5.0757599 -12.932213 2.3737929 12
-5.0106139 -5.2268505 2.470742 14
-4.8295689 1.9610598 -0.65525907 4
-4.9360838 2.1812596 -0.66666132 4
-4.810523 2.3998141 -0.64461279 5
-4.9345899 2.4292049 -0.66528088 4
-4.9163818 2.7064087 -0.66360158 4
-4.8796153 2.9915011 -0.66107869 4
-4.8901 3.1878541 -0.66584903 4
-4.8239655 3.2407722 -0.65780395 4
-4.906909 3.4301138 -0.66659433 4
-4.8676376 3.4321454 -0.59088349 4.3333335
-4.8091793 3.626395 -0.557634 4.6666665
-4.8736606 -10.804791 -0.20325918 7
-4.8179355 3.5459988 -0.20658316 6.5
-4.9331808 3.7081225 -0.25326407 6.4583335
-4.818819 5.2024069 -0.31614202 6
-4.9497952 -5.0035214 -0.12550035 7
-4.8609776 -4.9972191 -0.12430864 7
-4.9016862 5.6359882 -0.13957983 7
-4.9746308 -5.0068817 0.11804454 8.0112495
-4.9323487 3.6661222 0.13284534 8.3000002
-4.9244967 -5.0165949 0.30252451 8.75
-4.8148022 1.9573647 0.28565136 9
-4.9636078 3.7260363 0.21261322 8.5
-4.8936419 5.4804125 0.29386741 9.046875
-4.8776555 -5.0724964 0.53079587 9
-4.8077469 1.9584932 0.56690854 10.5
-4.8409128 2.0444589 0.5408079 9.8933334
-4.9397931 3.716754 0.51330388 10.111111
-4.8860044 5.6596479 0.43730482 9.5908747
-4.8601947 -5.0576744 0.63480496 9.666667
-4.8362627 2.0171721 0.65235317 10.0925
-4.9502635 3.6611829 0.69829321 11.351583
-4.851253 -12.424427 0.89201623 9.1059999
-4.9501309 -5.062747 0.97030014 10.666666
-4.8987684 2.0343485 0.89140064 11.307111
-4.9651256 3.6488202 0.92555487 12.25
-4.940774 5.6389546 0.91742116 11.5885
-4.8322444 -5.0056291 1.0994362 12
-4.8316932 2.0680354 1.0067465 11.092
-4.9281526 3.507556 1.1457244 13
-4.980391 -12.988392 1.3337091 10.0855
-4.8466072 -5.1018758 1.3191342 11.333333
-4.8817105 1.5785098 1.2718413 14.0765
-4.8676181 1.6545262 1.316186 11.84025
-4.9248991 4.1198268 1.3352983 12.443063
-4.8768239 5.4405675 1.3306992 14.03675
-4.8652859 5.6289768 1.3094261 12.1535
-4.8813 6.2160292 1.2507347 12.154
-4.9018407 -12.997393 1.5078806 10
-4.8297653 -5.1170468 1.4751198 13
-4.9271693 1.6517158 1.4664193 13
-4.9235654 4.1268568 1.438648 13.3685
-4.8031425 5.5827999 1.5899729 13.1535
-4.8701873 -5.2136521 1.7149744 12.57475
-4.9014587 -5.070961 1.6181833 14
-4.8385458 1.6629317 1.7511711 11.091
-4.8805294 4.1159244 1.7450191 13.299
-4.9786139 -12.987903 1.8505585 11.0855
-4.8192582 -5.2059579 1.875174 13.1095
-4.894444 -5.1933756 1.9564081 11.554501
-4.8899164 1.6778321 1.9217119 13.75
-4.8966947 1.885553 1.9685631 13
-4.9428096 2.3247423 1.9754354 13
-4.9627213 2.7241096 1.9806926 13
-4.9723959 2.9731877 1.9849083 13
-4.9637871 3.1415153 1.9857517 13
-4.9405365 3.5447419 1.9893917 13
-4.9010262 3.8881006 1.9911051 13
-4.8929081 4.0616755 1.8939846 14.5845
-4.8547244 -5.2168012 2.0871592 13.57475
-4.8777189 1.758793 2.0060844 15
-4.9202189 2.0338378 2.0099223 15
-4.9615207 2.4112673 2.0149229 15
-4.9916773 2.826117 2.0223794 15
-4.9896235 3.2329276 2.0272799 15
-4.9568262 3.6865702 2.0319059 15
-4.9362016 3.9707789 2.0183623 14.043
-4.8957543 4.1636629 2.0316842 15.158
-4.6443443 2.8186207 -0.64142627 5
-4.6190224 3.6102993 -0.65678114 4
-4.7736239 2.0924056 -0.5043059 6
-4.6667962 3.5538244 -0.45589319 5
-4.6478868 3.7110181 -0.48205078 5.3766665
-4.6168361 3.8638027 -0.50977689 5
-4.6626272 -10.373575 -0.24094842 7
-4.631752 -4.9880657 -0.2954337 7
-4.6870818 2.0685802 -0.27521119 6.5
-4.6605067 3.5523555 -0.28518131 6
-4.6265025 3.7440541 -0.27623543 6.2857141
-4.6119905 3.8340387 -0.27609548 6
-4.6225219 -5.0426903 -0.12197968 7
-4.672121 3.54158 -0.11436161 7
-4.6469021 3.6958926 -0.15978591 6.8095241
-4.6115627 3.8964345 -0.098509848 7
-4.6312075 5.5796423 -0.18084164 7
-4.7055969 -5.1124196 0.045715287 8
-4.7939734 2.063669 0.19062158 8.5
-4.715363 3.5370486 0.098919891 8.25
-4.6389694 3.7136762 0.14017233 8.166666
-4.6342931 3.8587258 0.12269736 8.1800003
-4.6142907 4.0308828 0.11495412 8
-4.7011199 5.5246658 0.16880752 8.6948328
-4.7785349 -10.646722 0.22178355 8.0889997
-4.6906304 -5.101964 0.34079087 8.6718998
-4.6461062 -4.9928498 0.35246998 9
-4.7518778 2.0484104 0.32583919 8.7962494
-4.6587167 3.5419853 0.22548051 9
-4.6182442 3.7061107 0.28298447 8.8888893
-4.6213255 3.9102547 0.29416871 8.2142859
-4.6210251 4.0624275 0.31422856 9
-4.6868577 -5.1321607 0.52351105 9.333333
-4.7293572 3.5395777 0.47253418 10.416666
-4.6433702 3.7030613 0.52547461 9.7487183
-4.6393728 3.894392 0.52424031 9.8816319
-4.637363 4.0497785 0.51145428 9.7142859
-4.6592407 5.4749007 0.47065505 10.036
-4.7016072 5.6927919 0.4031668 9.1529999
-4.7921648 -12.44311 0.79516453 9.0854998
-4.632462 -5.2462864 0.6808688 10
-4.7412696 -5.1195483 0.72038597 9.7773752
-4.7985392 2.0470109 0.64963186 10
-4.642168 3.5951424 0.64059657 11
-4.6419749 3.7176974 0.68966961 10.044444
-4.6356416 3.8921254 0.69342619 9.5900002
-4.6413727 4.0654459 0.69402492 10
-4.6569366 5.9350452 0.65304524 10.154
-4.6905303 -5.2235174 0.9505797 10
-4.6901126 -5.1320791 0.91925985 10.535299
-4.6432867 -4.9933186 0.83100879 11
-4.7902403 1.9863526 0.85241526 12
-4.6673427 3.5401373 0.9144749 12
-4.6580343 3.7141671 0.89851189 11.2086
-4.6292171 3.8570762 0.88905632 10.47619
-4.6296816 4.0661635 0.89783603 10.931834
-4.6472774 5.5107818 0.92952281 11.518
-4.6449633 5.6459494 0.89017004 11.587749
-4.6014795 -5.2473054 1.0722126 11
-4.7217116 -5.1194625 1.0934163 10.929015
-4.600132 1.6479524 1.1435815 10
-4.6719179 3.5404582 1.0941367 13
-4.6703668 3.6944087 1.0799443 12.165856
-4.6616931 3.8768845 1.0604881 11.595238
-4.6374998 4.0678153 1.0721537 11.055554
-4.6464677 -5.2275119 1.2126561 12
-4.7143426 -5.0757093 1.300683 11.755875
-4.6303854 1.6538599 1.2456322 10
-4.7066669 3.9645219 1.3204013 14.014333
-4.6518106 4.1020341 1.2981814 12.861714
-4.6728206 5.538197 1.2984397 13.354667
-4.6878185 -5.2193227 1.5270369 11.5
-4.6769676 -5.1344042 1.4934405 12.682214
-4.6967463 4.0782456 1.475392 13.537167
-4.6963558 5.5673313 1.5711197 13
-4.6607656 5.7123475 1.4844342 13.440499
-4.7235184 -5.2147264 1.6839334 12.5
-4.7718306 -5.1796789 1.6841178 10.107
-4.6221418 1.635888 1.6768229 14.094
-4.6268888 4.1042433 1.6758069 14.25
-4.6656933 -5.2300777 1.9020677 13.833333
-4.7060418 -5.1756468 1.8927723 13.5
-4.6915965 4.0982895 1.8979919 13.5
-4.6906691 4.209115 1.8323387 11
-4.7723608 -5.2335243 2.0366952 14.333333
-4.6971145 -5.2536373 2.2714899 15
-4.4709849 2.0160851 -0.61000836 5
-4.4046302 3.3117228 -0.6368016 5
-4.4974165 3.8821003 -0.63133359 5
-4.4410095 1.9815636 -0.42880234 5
-4.504436 2.0835268 -0.56753391 5.5
-4.5951648 3.7553635 -0.5258742 5.1111112
-4.5239668 3.9401047 -0.49144492 5.5
-4.4104843 1.9321078 -0.21365075 7
-4.5847902 3.7373037 -0.27937099 6.125
-4.5675936 3.8950913 -0.27093172 6.5555553
-4.5651464 4.0247107 -0.32059768 6
-4.4584317 5.2431798 -0.29909161 6
-4.4223475 5.468461 -0.32192549 6
-4.5617623 -5.2045426 -0.093388982 7
-4.432322 2.0681722 -0.16685052 7
-4.5551887 3.7340348 -0.1193352 7
-4.5295949 3.9230402 -0.12424914 7
-4.5316234 4.0924101 -0.064673968 7
-4.4696794 5.5272903 -0.12687533 7
-4.4131088 5.6177702 -0.12673488 7
-4.4308228 -5.1849794 0.027119633 8
-4.5935612 -4.9641361 0.11315151 8
-4.4332032 1.6225022 0.14526407 8.1560001
-4.4113522 1.8575482 0.11400507 8.1315002
-4.4407997 2.051698 0.12530717 8.06775
-4.5800524 3.7106893 0.11290736 8
-4.5796275 3.912519 0.13156803 8.0666666
-4.5644073 4.0743189 0.10805456 8.1402302
-4.4402246 5.5331974 0.054039463 8
-4.5948396 5.6231599 0.10820492 8.1529999
-4.528996 -5.1851797 0.395069 9
-4.4057941 1.7612234 0.35330477 8.5
-4.4048815 1.9798139 0.2636579 8.333333
-4.4725194 2.0561688 0.3117604 8.1999998
-4.5863061 3.7322233 0.28013232 8.3000002
-4.5624371 3.8962028 0.24918737 8.333333
-4.5632486 4.0821085 0.26734206 8.6564627
-4.5424995 5.5706816 0.2782543 9
-4.5063682 5.6610975 0.33115363 9.1475
-4.4028997 1.5833025 0.44522023 10
-4.4051938 1.6710837 0.5387423 10.166667
-4.4218764 1.941421 0.55415988 10.833334
-4.4112396 2.0775018 0.4862785 8.666667
-4.5939174 3.73651 0.45927835 9
-4.559453 3.8966348 0.54354829 9.7069168
-4.555686 4.1005387 0.5293166 9.6818333
-4.5417953 5.5921559 0.54962778 10.5
-4.53262 5.6052952 0.4653298 9.5
-4.4468832 -11.082336 0.71513861 9
-4.5249295 -5.2176819 0.71700424 9.5345001
-4.4188833 1.7279329 0.68732035 9.2181997
-4.4181085 1.9141499 0.68552119 10.016438
-4.4567728 2.038064 0.68092597 9.4414997
-4.5701237 3.7056167 0.77285892 9
-4.5994177 3.9106135 0.60338825 10
-4.5648913 4.090992 0.68791306 10.554611
-4.5823526 5.5352688 0.66968083 10.25
-4.4201179 1.6993482 0.91480166 10.75
-4.4227824 1.9312683 0.92944372 10.604167
-4.4498644 2.062628 0.89744061 10.2
-4.5978117 3.5867441 0.82271463 12
-4.5837774 3.7050545 0.88748014 10.25
-4.5153232 3.9143369 0.95551771 11.252723
-4.5454926 4.0692549 0.91457474 11.68
-4.5559802 5.5888424 0.97512215 12.5
-4.5717125 5.6229515 0.88424015 11
-4.5979371 5.8578167 0.90889192 11.154
-4.5474262 6.0283108 0.9216848 11.1535
-4.4103026 -11.102393 1.1974721 10
-4.5495543 -5.2066326 1.1190451 11
-4.5774512 -5.1548214 1.0091567 10.5
-4.4279933 1.5910884 1.1214173 13.2885
-4.4519973 1.673647 1.1189771 11.0186
-4.4184361 1.9272904 1.0847346 12.8
-4.4348359 2.0629308 1.0758958 11
-4.5799012 3.7424104 1.0987008 11.5
-4.5799451 3.8278685 1.0465676 12.5
-4.5503764 4.0766644 1.0978291 12.007626
-4.5807896 5.5243554 1.0067935 12
-4.5524607 5.6113849 1.092069 12.013
-4.4482899 -5.2382851 1.2925299 10.55175
-4.4450855 1.5841707 1.3604143 14.077
-4.51478 1.656237 1.3437899 12.197499
-4.4769006 4.0695267 1.3237109 13.274708
-4.5683327 5.5452108 1.2624139 13.5
-4.568418 5.612967 1.2473006 13.026
-4.5996537 -5.2244854 1.5074124 12.5
-4.5660892 -5.1349936 1.5089204 12
-4.5247035 1.6474342 1.4845619 12.364501
-4.4722128 4.0741305 1.427354 12.666667
-4.4531651 -11.087468 1.6887622 11
-4.4592433 -5.2086401 1.6660699 12.25
-4.5186973 1.6481711 1.683224 12.5
-4.5132985 4.0893774 1.689653 13.432199
-4.4708433 -5.2384272 1.921692 11.1035
-4.5430527 -5.1598344 1.8308716 14.333333
-4.504158 1.65367 1.877475 13.319876
-4.5603247 4.0813909 1.8520414 14.666667
-4.5290542 -5.2146697 2.0576215 13
-4.5748024 -5.1487832 2.1788037 14
-4.5959392 -5.2511539 2.256799 15
-4.3238406 1.9009826 -0.60921723 4.8333335
-4.2463894 3.567497 -0.63276136 5
-4.335783 3.9878681 -0.64855194 4
-4.3860011 1.7384599 -0.56006372 4
-4.3796086 1.9187757 -0.51723474 5.125
-4.3933849 2.0501299 -0.5348742 5.6666665
-4.2465849 4.868988 -0.57656783 6
-4.3584805 -5.073288 -0.30067649 7
-4.2649508 -4.2400675 -0.3172825 6
-4.3349128 -4.1724381 -0.35278481 7
-4.3731661 1.7409972 -0.32760373 5.5
-4.3494864 1.9061007 -0.28203291 6.1666665
-4.3878136 2.0705445 -0.31103489 6.5
-4.3839173 5.3781118 -0.20992878 7
-4.3286128 -5.2148824 -0.079415366 7
-4.2844038 -5.1213193 -0.12713222 7
-4.3296838 1.7649212 -0.10892735 6.8333335
-4.3652763 1.9184531 -0.13847516 6.9583335
-4.3903146 2.0514314 -0.1099658 7
-4.2091837 4.8341579 -0.14039202 7
-4.3886752 5.0086617 -0.081221223 7
-4.3855066 5.3571758 -0.16987385 7
-4.3187633 -5.1472025 0.13322115 8
-4.3517747 1.5696777 0.1282492 8.5
-4.3414264 1.6900676 0.11627371 8.1591005
-4.3614621 1.9169354 0.1230334 8.223299
-4.3702312 2.0585854 0.097730383 8
-4.2999501 4.1059637 0.13931833 8.3712502
-4.3639712 5.4948106 0.073433138 8.0886869
-4.3402319 -10.950485 0.3752155 8.0839996
-4.2966857 -5.220737 0.25539166 8.125
-4.3522711 1.5547849 0.27653664 9.3524446
-4.3746634 1.7043487 0.2776795 8.6202078
-4.3777809 1.9292352 0.28494874 9.136364
-4.3806353 2.0545948 0.27989572 8.75
-4.2136903 4.1017275 0.20739447 8.5
-4.391068 5.6007962 0.31892475 9.0255003
-4.3218808 -5.2741704 0.50232929 9.25
-4.3642707 -5.1981287 0.45535594 9
-4.3034077 1.5390428 0.58119619 11.5575
-4.38588 1.7021413 0.51959705 9.7380953
-4.3950024 1.9250897 0.51991588 10.211111
-4.3891826 2.0479085 0.47661212 10
-4.3002729 4.077538 0.54159886 10.39625
-4.3224869 -11.221653 0.72157919 9
-4.2508631 -11.106836 0.71504617 9
-4.3135896 -5.2444 0.64759976 9.75
-4.303678 -5.146337 0.67094302 9.5
-4.3724799 1.5541391 0.69003606 11.75
-4.3058248 1.6621884 0.65749735 10.206072
-4.3886533 1.9264787 0.6319598 11.25
-4.3940182 2.0409477 0.6684835 10.5
-4.2933168 -11.135344 0.81643885 9
-4.3630128 -5.2294841 0.86763656 9.666667
-4.3896894 1.5106916 0.98526955 13
-4.3762865 1.6958328 0.94480443 11.458333
-4.3917775 1.9319742 0.95572758 12.625
-4.3924356 2.0713122 0.91134375 12
-4.2908568 4.0952778 0.94448644 11.604583
-4.3155746 -11.205713 1.1602275 10
-4.2240429 -11.121875 1.195858 10
-4.3047209 -5.2829342 1.03758 11.133334
-4.3698034 -5.1576982 1.0521814 10.666667
-4.3160582 1.537311 1.0479684 13.5575
-4.3784556 1.6824483 1.0876771 11.230834
-4.3924341 1.8995814 1.1123652 13
-4.3947525 2.0839665 1.0890965 13
-4.2135582 -11.22633 1.3245175 10
-4.3341317 -11.129061 1.3259895 10
-4.3279457 -5.2785625 1.2752935 11.5
-4.3267136 1.6433758 1.3846452 13.25
-4.2559681 3.9548597 1.2133398 14
-4.2964778 4.0863271 1.3369339 13.452382
-4.3373871 -5.2419515 1.4929998 11.833333
-4.3372693 -5.1388621 1.4906501 12
-4.3139143 1.6642781 1.4680387 11.559112
-4.2889175 3.9852071 1.4279686 10.1
-4.3943434 4.110321 1.4337329 12.585
-4.3228126 -11.230813 1.6126572 11
-4.232245 -11.128686 1.6872832 11
-4.3414907 -5.2747755 1.6973358 12.75
-4.3001194 1.6438302 1.7705557 13.75
-4.3176885 4.0806856 1.6695828 14.166666
-4.2617621 -11.226542 1.8053297 11
-4.3128815 -11.138892 1.8466359 11
-4.2556744 -9.8033667 1.9863782 12.0895
-4.336123 -5.2307091 1.9121754 13.833333
-4.3238754 -5.1444221 1.8101631 13
-4.3395348 -4.1806984 1.9413587 13.1095
-4.2699375 1.648913 1.8312416 13
-4.3212743 4.0862188 1.8753083 14.5425
-4.2296476 -10.839192 2.005789 12.0855
-4.2729516 -5.2121058 2.1823673 12.5
-4.3224163 -5.1146159 2.1713169 14.666667
-4.2776141 -4.3740458 2.1845281 13.1085
-4.2888212 -3.9565446 2.166549 12.606
-4.2645984 -3.7028675 2.0808322 14.268875
-4.3634253 -5.2427139 2.2234235 15
-4.3656549 -4.2996273 2.2301624 14.11175
-4.3674984 -4.0944123 2.2220004 13.1065
-4.3426795 -3.4527698 2.3071926 15.018
-4.0550308 1.8515381 -0.64699072 3
-4.163404 2.0810077 -0.653588 3
-4.0157495 2.3863833 -0.64866292 3
-4.1226487 3.757153 -0.63002223 5
-4.0486164 1.7304646 -0.50422221 5.02
-4.114285 1.8209339 -0.56066018 6
-4.1006875 3.7623122 -0.56857061 4
-4.0902958 3.8890457 -0.53667963 4.5
-4.0224915 -5.1700296 -0.3100777 7
-4.0731912 -4.5796299 -0.32336983 6
-4.1446028 -4.3928399 -0.35527807 7
-4.0066214 1.704746 -0.32270363 5.3333335
-4.0912576 1.8157287 -0.2605215 7
-4.1516685 4.7785373 -0.27108207 6
-4.0604882 -9.3300276 -0.17657696 7
-4.1632214 -5.117259 -0.12800418 7
-4.0210609 5.3266778 -0.11836636 7
-4.0708981 -5.1685019 0.080453843 8
-4.047471 1.6545632 0.16881366 8.5
-4.1521435 4.016046 0.16845611 8.6071434
-4.0976329 -11.127756 0.38123783 8
-4.0858879 -10.417098 0.26084468 8.0854998
-4.1308727 -10.299304 0.25249285 8.0979996
-4.0873122 -9.6662788 0.25995234 8.0952501
-4.0342813 -5.2319007 0.35046068 8.5580006
-4.1870003 -5.1325393 0.22668058 8.5
-4.026722 1.654446 0.21960506 8.25
-4.0747361 4.085856 0.26671797 8.8000002
-4.1015711 -5.2094378 0.41888413 9
-4.0979004 -5.1495595 0.44661489 8.1075001
-4.1978154 3.9892683 0.59445101 11.333333
-4.1027837 4.064075 0.55470181 10.165375
-4.1708169 -11.185104 0.71716112 9
-4.0688453 -5.2156405 0.73418778 10
-4.1275868 -5.150919 0.65660268 9.916666
-4.0985036 4.0771198 0.65908802 10.791667
-4.1952515 -11.231833 0.8556987 9
-4.0498443 -11.150396 0.81387055 9
-4.0569482 -5.2540092 0.87232405 9.5580006
-4.1965413 -5.1503406 0.92946059 11.5
-4.074338 1.6457961 0.95352614 11.5
-4.086657 4.1029663 0.88038355 11.166667
-4.1603341 -11.188963 1.1545508 10
-4.120687 -5.164403 1.0942106 10.05375
-4.0060263 1.5893791 1.0765876 13.0775
-4.1339641 1.6470686 1.1548935 11.333333
-4.1496372 3.9943743 1.0807227 13.333333
-4.1280046 4.0772257 1.0998367 12.53355
-4.1310248 -11.245547 1.3248954 10
-4.1453876 -11.145848 1.3226576 10
-4.0838614 -5.2204752 1.2467638 11.25
-4.0099339 1.5883682 1.2479553 14.0775
-4.0588131 1.6329154 1.3625295 12
-4.0972624 4.083425 1.3310347 13.593928
-4.0455642 -5.2968802 1.5372175 10.116
-4.1665673 -5.1441646 1.4382516 12.75
-4.0792689 1.6485553 1.4619792 12.833334
-4.0309081 4.1017694 1.5318185 12.58075
-4.1791787 -11.207765 1.6043442 11
-4.0955873 -5.2094545 1.6590325 12.333334
-4.1383672 -5.164742 1.7128229 11.55375
-4.1152334 1.6309726 1.7877783 14
-4.1587729 -11.251623 1.8056242 11
-4.079628 -11.170993 1.8419077 11
-4.1451759 -9.1497269 1.9388558 13.03275
-4.0528145 -8.064641 1.9291619 12.116
-4.1815672 1.6338974 1.8318092 15
-4.0983424 4.0869737 1.8119334 14
-4.0667968 -11.037805 2.0975239 12
-4.1679969 -10.943827 2.0188622 12
-4.0901585 -10.698957 2.1156423 12.0905
-4.0754108 -10.001984 2.0087719 12.09
-4.053812 -9.7185802 2.0379827 12.08375
-4.0532055 -8.7374907 2.012022 12.5945
-4.1840305 -8.0916061 2.0301101 13.018
-4.0571442 -5.2415681 2.1165383 12.705334
-4.1176343 -5.1238689 2.1510768 14.54225
-4.0766225 -4.3292303 2.1017642 14.111
-4.1256356 -4.0992393 2.0921645 13.077499
-4.1781611 -3.6197598 2.0330863 12.1045
-4.189549 -3.397841 2.0836048 11.113
-4.0318303 -11.378751 2.2176769 12.091
-4.0205994 -10.995548 2.3405397 12
-4.0448308 -9.2059088 2.301615 13.0895
-4.0662441 -8.727293 2.215049 13.089
-4.0143247 -5.3457704 2.2231822 15
-4.0616388 -3.7187455 2.2318025 14.109
-4.0536819 -10.571372 2.5548117 13.0905
-4.0679708 -9.9671946 2.4433818 13.09
-3.9997256 1.7786076 -0.60519487 6
-3.9531555 1.8547494 -0.6398465 3
-3.9502413 2.2260423 -0.64073318 3
-3.88659 2.5651412 -0.64265746 3
-3.8313577 2.6544945 -0.63485533 3
-3.9180808 3.9442527 -0.60963202 4.5
-3.8089144 -1.3176248 -0.47885832 7
-3.886075 1.5317937 -0.53582084 3.75
-3.9796631 1.6960034 -0.53608775 4.5333338
-3.838042 3.779604 -0.5373202 4
-3.8266602 3.9604838 -0.49717334 4.75
-3.9245188 -5.1557131 -0.28882608 7
-3.9287779 -4.6804142 -0.34117445 6.5
-3.9954362 1.6765772 -0.22837701 6
-3.820051 3.7718518 -0.3134011 5.5
-3.8008449 -9.3173361 -0.070144072 7
-3.9183764 -5.2347727 -0.089694783 7
-3.9238389 -5.3073988 0.13315402 8
-3.956569 -5.1813316 0.074944623 8
-3.8162432 -1.4313236 0.078713708 8
-3.8003037 -1.1630219 0.081111193 8
-3.9123509 1.6655577 0.12371703 8.2952499
-3.910141 4.0729432 0.14893994 8.4413271
-3.8369284 5.0451961 0.083303325 8
-3.9059935 -11.077133 0.34126306 8
-3.9221671 -5.2151875 0.2374844 8.1724997
-3.8089406 -1.1773369 0.20412263 8
-3.8654075 1.5431474 0.24352764 9
-3.883688 4.1274281 0.33784303 9
-3.9356341 -5.3345199 0.59876293 9.6000004
-3.969836 -5.1979356 0.44447172 9
-3.8336844 1.5607821 0.56189895 10.5
-3.9485714 1.6399238 0.55433553 10.128584
-3.9601657 4.1005049 0.54752493 10.5
-3.8535721 5.0780869 0.51962489 10.5
-3.9491992 -11.160368 0.71237791 9
-3.8872168 -5.2267928 0.68726128 9.3055
-3.8373933 -1.4445062 0.64475846 9
-3.8368566 -1.3171687 0.6447894 9
-3.8303452 -1.1586612 0.69826025 9
-3.8197742 -0.94960225 0.69453049 9
-3.8133097 -0.716887 0.69098818 9
-3.8077407 -0.40844062 0.72951883 9
-3.8980167 1.5471463 0.61295277 11.285714
-3.8880112 1.6264056 0.65316248 9.916666
-3.904264 4.0745006 0.60984212 10.892857
-3.8055413 5.0604749 0.67098361 11
-3.9091499 -11.251871 0.85497874 9
-3.9546037 -5.2123919 0.9001897 10.00875
-3.8008835 -1.7217479 0.98627603 11
-3.8153086 -1.5137632 0.89593524 9
-3.8096962 -1.2208102 0.95586652 9
-3.9397879 1.5870316 0.93458712 12.25
-3.8846922 1.6464227 0.88626754 11.54525
-3.8747101 4.1136003 0.89141828 11.875
-3.8128414 5.0457435 0.87192869 12
-3.9425304 -11.184017 1.1483966 10
-3.9394836 -5.2637143 1.0640653 11.125
-3.8293786 -5.164134 1.130702 11
-3.8027632 -1.7340788 1.1768335 11
-3.8087876 -1.5957479 1.1838884 11
-3.8401034 1.6354799 1.1085675 11
-3.9148102 4.0999703 1.0573308 12.457041
-3.8264372 5.0846844 1.0607628 12.75
-3.8932905 -11.242344 1.3205546 10
-3.9067397 -5.2670245 1.3370219 10.8195
-3.8265798 -1.9854891 1.2110561 10
-3.819725 -1.5333625 1.2094862 10
-3.839922 -1.2130895 1.2961754 10
-3.8184497 -1.0884539 1.2026824 10
-3.826386 -0.93948394 1.2859985 10
-3.8145835 -0.71648777 1.2386621 10
-3.8133755 -0.31730279 1.2655245 10
-3.8764398 1.5824244 1.2134101 14
-3.8916512 1.6462411 1.3425801 11.75
-3.8945782 4.0796404 1.284807 13.731298
-3.8037851 4.6815209 1.3851539 11
-3.8715 5.0610013 1.2584339 13.512751
-3.9358287 -11.167202 1.5903398 11
-3.9191749 -5.2226887 1.4970944 12.611111
-3.8061695 -5.1979208 1.4274912 12
-3.8134985 -2.0495498 1.4239932 10
-3.8051674 -1.9520389 1.4840183 11.25
-3.8166053 -1.6216474 1.4523811 10
-3.8035352 -1.521 1.4835076 11
-3.8062842 -1.3044738 1.4444697 10
-3.8642139 1.6196445 1.4191576 12
-3.8080187 4.9150553 1.4260561 14
-3.8979735 -5.2550287 1.7564799 13.026751
-3.8614099 -5.1668701 1.7640412 12.50875
-3.8030267 -2.0315773 1.708661 11
-3.8350112 -1.9366851 1.7381569 11
-3.8267002 -1.5452079 1.7152817 11
-3.814393 -1.1403297 1.70233 11
-3.8302789 -0.99601233 1.7719985 11
-3.8269835 -0.74240327 1.768486 11
-3.8157558 -0.34731051 1.7632304 11
-3.8119552 0.088978767 1.7596542 11
-3.813971 0.24729352 1.7966645 11
-3.807061 0.54801518 1.7873991 11
-3.8001397 0.81263 1.7797537 11
-3.8349304 1.6433419 1.6859392 12.333333
-3.879168 4.0772591 1.7899076 14.75
-3.8919656 -11.281792 1.8022708 11
-3.9500484 -5.2271929 1.8836514 12.4457
-3.9433753 -4.3417335 1.9971595 14.11
-3.8032207 -1.9456882 1.9858356 11
-3.8002994 -1.6028405 1.9745561 11
-3.8539727 -1.2553278 1.8540405 11
-3.8384964 -0.94000262 1.8398677 11
-3.8353062 -0.66131562 1.8289905 11
-3.8294744 -0.39246887 1.818808 11
-3.8193555 -0.035429511 1.8059083 11
-3.9469182 4.0804992 1.822921 13.0855
-3.9367738 -11.174734 2.0435977 12
-3.8990662 -10.225995 2.1148369 12.0845
-3.9629865 -9.8136148 2.154834 12.106
-3.9584138 -9.44028 2.1532137 13.085
-3.946986 -9.1883249 2.0584068 12.1055
-3.948036 -8.8514996 2.042954 13.0845
-3.9248514 -8.4883518 2.1477635 14.0325
-3.9114769 -8.0578442 2.0567582 14.032
-3.8840399 -5.2337794 2.1529045 14.5
-3.8712242 -5.1705627 2.1195483 13.50875
-3.9004171 -4.2584081 2.1717541 13.1075
-3.814009 -1.6377277 2.0291035 11
-3.8039262 -1.230635 2.0135231 11
-3.8073611 -11.458709 2.3159673 12.0855
-3.8499954 -11.31356 2.2932434 12
-3.893183 -11.163855 2.2699218 12
-3.982929 -10.704721 2.3432248 12.553249
-3.9670446 -9.9792175 2.2546785 13.0855
-3.9089422 -8.890913 2.2582271 13.55825
-3.9608259 -8.4532499 2.3351619 14.084
-3.9314055 -8.1023874 2.3988881 15.032
-3.9447906 -7.8153872 2.3317018 15.0315
-3.9540267 -5.2637348 2.2163959 14.51
-3.8606393 -4.6509719 2.3832786 15.11075
-3.865972 -4.5319281 2.3132122 14.111
-3.872436 -4.2361283 2.2624421 14.773334
-3.8472471 -4.0135889 2.2566953 14.56525
-3.9269056 -3.8819292 2.2383871 14.609375
-3.9082065 -3.7196007 2.2867377 13.560751
-3.836406 -3.0442314 2.2776134 12.1005
-3.9174397 -11.179558 2.4784381 13
-3.986706 -10.947996 2.4385488 13
-3.8128476 -10.635616 2.5552607 13.091
-3.9056945 -10.229335 2.5493495 13.0845
-3.879966 -9.6399288 2.5109172 13.584749
-3.9424293 -9.4000587 2.5418923 14.085
-3.9276021 -8.8018951 2.4087343 14.0845
-3.8811934 -8.5765514 2.5080662 15.03275
-3.8306141 -4.2665014 2.4942718 13.1255
-3.8661633 -4.1458149 2.4849358 15.1125
-3.8483469 -3.8995411 2.4439201 14.10875
-3.8299346 -3.4997389 2.4762962 14.60825
-3.8187628 -3.3978431 2.4009428 13.1045
-3.8129163 -1.2010286 2.4110663 12
-3.7184193 -1.3124028 -0.61764121 5
-3.6054904 -1.0228001 -0.60563827 6
-3.7802291 -0.9996376 -0.611848 6
-3.6536996 0.10968953 -0.61851948 5
-3.6170857 0.55893403 -0.62540317 3
-3.7000041 1.0790533 -0.61368138 3
-3.7666605 1.4123391 -0.61495727 3
-3.7020226 2.8546343 -0.6403684 3
-3.6998072 3.0536323 -0.63428497 3
-3.6351767 3.358202 -0.63203388 4
-3.6647315 3.6602464 -0.63355327 5
-3.6630223 -1.9011692 -0.47719839 5
-3.7651334 -1.694769 -0.49162972 4.9000001
-3.7644873 -1.5180607 -0.51127845 5.75
-3.7398741 -1.2842731 -0.49682882 4.4000001
-3.7422638 -1.0918719 -0.45586246 5.8333335
-3.6690946 -0.10081085 -0.48659858 4.6666665
-3.6959116 0.11093093 -0.5041256 4.6125002
-3.7244997 0.29561046 -0.51272327 5.7460318
-3.6088288 0.40778127 -0.56429148 5
-3.6650622 0.65656435 -0.55635053 4.083333
-3.7118249 0.97531116 -0.58262509 4
-3.7017748 1.3430415 -0.58057594 5.5
-3.7058194 3.2922733 -0.5952965 4.5
-3.7224469 3.4885695 -0.59175205 5
-3.6219218 3.7225599 -0.59033561 5
-3.7415874 3.9169266 -0.5081135 4.6999998
-3.6858878 4.0856838 -0.46857741 5.25
-3.791914 -9.2140579 -0.20989853 7
-3.6830287 -5.0939989 -0.26075199 6.75
-3.6862597 -4.7315016 -0.35587132 7
-3.749685 -4.1382475 -0.28434396 6
-3.6974761 -1.8059418 -0.22688401 6
-3.7623699 -1.683737 -0.25783798 6.4583335
-3.762516 -1.4326743 -0.26500034 7
-3.7619159 -1.2888529 -0.3093822 6.1666665
-3.7348757 -1.1143689 -0.25008857 6.5
-3.7050443 -0.71670598 -0.2360404 7
-3.6802399 -0.46273646 -0.23292799 7
-3.7008178 -0.32645196 -0.22952221 6.6666665
-3.6643634 -0.091066539 -0.24428152 6.75
-3.6803718 0.039638873 -0.29242131 6.2666664
-3.6904752 0.32453379 -0.27229941 6.3333335
-3.6990256 0.66999489 -0.30619726 6.1666665
-3.6775239 0.91205227 -0.37701628 6
-3.7381999 3.9171929 -0.28900406 6
-3.6915643 4.1004248 -0.30088511 6.0366297
-3.6202762 4.246264 -0.22688191 6.090909
-3.708847 5.1542215 -0.27504927 6
-3.7155662 -9.2877779 -0.13185185 7
-3.7553799 -9.182148 -0.17185897 7
-3.7106934 -5.1176662 -0.12828225 7
-3.6556282 -1.8880093 -0.19737507 6.5
-3.727056 -1.7115813 -0.15110697 6.75
-3.7744532 -1.4952455 -0.1557938 6.9000001
-3.7231779 -1.2967733 -0.16189261 6.5333328
-3.7501478 -1.0526258 -0.14771226 6.8000002
-3.7356412 -0.9068265 -0.13660897 6.8400002
-3.7077703 -0.70699781 -0.14593989 6.9166665
-3.7250612 -0.49836683 -0.13799436 6.8611107
-3.7205822 -0.25718054 -0.16201873 6.9285712
-3.6900487 -0.11437887 -0.15680395 6.4920635
-3.7008903 0.11739953 -0.16610479 6.5666671
-3.7131162 0.29040208 -0.14638069 6.8000002
-3.6743364 0.83357763 -0.051822912 7
-3.6493108 1.104405 -0.13358696 6.3333335
-3.655637 1.3391869 -0.098414727 7
-3.6652067 1.4797224 -0.12725908 7
-3.628907 1.655666 -0.10862646 7
-3.7652237 3.7470605 -0.092427209 7
-3.7256267 3.8957446 -0.11790705 6.8874998
-3.690264 4.0927806 -0.13169228 6.8722219
-3.6165836 4.316648 -0.1101912 7
-3.6139657 4.4330583 -0.12218426 7
-3.6516929 4.6536393 -0.051653996 7
-3.6890907 5.087965 -0.14232834 6.833333
-3.7181058 -5.304337 0.13341899 8
-3.7237403 -5.1643338 0.085504964 8
-3.6489217 -1.8917786 0.14231716 8.333333
-3.7473497 -1.6724647 0.12564121 8.2195997
-3.770277 -1.4579352 0.11604645 8.083333
-3.7029889 -1.311579 0.15006776 8.4499998
-3.73314 -1.1396571 0.11264285 8.125
-3.7772167 -0.93349206 0.15523906 8.1999998
-3.7589033 -0.71390063 0.11735046 8
-3.7271216 -0.47604212 0.16123548 8.25
-3.7387779 -0.31388894 0.12956999 8.0555553
-3.7127624 -0.10192636 0.12124474 8.0555553
-3.682976 0.063672483 0.16157253 8.25
-3.6865368 0.3313303 0.16097391 8.4361858
-3.6985319 0.46907595 0.12247632 8
-3.6355302 0.69307911 0.1660116 8.833333
-3.6476867 0.87758148 0.14919779 8.6988945
-3.67186 1.1257461 0.18859427 8.833334
-3.6526172 1.2988048 0.0702691 8.083333
-3.6714263 1.4840264 0.060183633 8
-3.6777687 1.6096289 0.033876777 8
-3.6365316 4.1131158 0.1183385 8.1000004
-3.6234674 4.2909532 0.11189704 8.1168127
-3.620177 4.4705758 0.1357961 8
-3.7352915 5.097259 0.13419978 8.3856115
-3.609751 5.3330979 0.14488724 8.2771244
-3.6086452 5.591145 0.054913435 8
-3.7027807 -9.644453 0.20831706 8.0904999
-3.7188034 -5.2131696 0.29328635 8.5
-3.7955685 -5.1322689 0.21834345 8.5
-3.7495217 -1.7117696 0.2264767 8.5085001
-3.7770746 -1.4720554 0.25235161 8.1333332
-3.7607598 -1.3410541 0.2587232 8.5999994
-3.7554066 -1.0598142 0.25979853 8.4499998
-3.7370372 -0.86826378 0.21386653 8.75
-3.726579 -0.69829309 0.2501004 8.5
-3.7291226 -0.49535519 0.22724099 8.5
-3.7213912 -0.3052386 0.24256171 8.375
-3.7014682 -0.085294582 0.27374592 9.2020836
-3.6982634 0.028969347 0.28963763 8.8999996
-3.6766829 0.31178471 0.28339067 8.9537506
-3.6447146 0.4711886 0.27445102 8.25
-3.6656637 0.77455693 0.3261244 9.666667
-3.676142 0.88243788 0.26863948 8.6428576
-3.6819475 1.1049391 0.28145802 9.208333
-3.6508353 1.2580673 0.2838929 9.1000004
-3.6406844 1.5252337 0.30155024 8.8125
-3.674458 1.655231 0.23260523 8
-3.644177 4.1054907 0.28508511 8.8187504
-3.6302364 4.3024187 0.28523457 8.6554489
-3.6208928 4.478056 0.29028285 8.5214291
-3.69909 5.1003842 0.28886607 9.090271
-3.6226902 5.3418932 0.28943875 8.5
-3.6134017 5.5431714 0.32694867 8.0825005
-3.6079962 5.672163 0.27586803 8.6746664
-3.7263536 -5.3179994 0.42110309 9
-3.7146459 -5.1137142 0.43808055 8
-3.6597643 -1.8685862 0.51797211 10.382667
-3.773257 -1.7195218 0.50189412 9.6111107
-3.7661428 -1.5104429 0.49214804 9.3000002
-3.7446022 -1.2827761 0.53480381 10.125
-3.7529752 -1.1045949 0.50613403 9.4833336
-3.7515993 -0.89841956 0.56446803 10.722222
-3.7329843 -0.73207504 0.53518546 10.12381
-3.7384989 -0.5037539 0.57447863 11.05
-3.7296991 -0.27571437 0.5236578 9.9857149
-3.7182264 -0.053337682 0.53146046 10.39225
-3.7212451 0.079820253 0.51013345 9.6333332
-3.7087405 0.31365034 0.52120036 10.88125
-3.681952 0.5101257 0.49309424 10.318073
-3.6883399 0.71228796 0.54424965 10.864286
-3.6824164 0.89292085 0.46465072 9.8611116
-3.6622312 1.1253475 0.46924558 10.011111
-3.6468563 1.3172327 0.48234439 10.472727
-3.7008965 1.5545501 0.50538278 10.611111
-3.7062287 1.6559458 0.4780339 9.416667
-3.6754711 4.1072836 0.53453189 10.176471
-3.6366353 4.3223348 0.544689 10.285714
-3.6267333 4.4641895 0.55014485 9.8999996
-3.607554 4.6430483 0.43837312 8
-3.6686833 5.1038251 0.52834111 10.013133
-3.6299438 5.3031936 0.50776434 9.333334
-3.6247444 5.4928336 0.55568594 9.9038324
-3.6210148 5.7092409 0.52024603 9.7891436
-3.6421993 5.9698639 0.58687794 9
-3.6230612 6.0779219 0.56554693 9
-3.7244265 -5.3071685 0.72194755 10
-3.7899194 -5.1524482 0.64975679 9.9642859
-3.7847075 -1.6904163 0.64643818 10.25
-3.778626 -1.4360404 0.63959152 10.166667
-3.7714612 -1.0628947 0.68197304 9.6999998
-3.7595863 -0.7037105 0.67526633 9.75
-3.741039 -0.47390991 0.60987657 10.5
-3.7584648 -0.30746251 0.67255193 9.4375
-3.7465096 -0.10931335 0.68063569 9.5
-3.7486908 0.093473069 0.65093476 9.3571424
-3.7583261 0.31552613 0.65603894 9.666667
-3.7419057 0.51730829 0.66264439 9.4142857
-3.7206368 0.78853571 0.61506391 10
-3.7349966 0.90430373 0.65379763 9.5333338
-3.749543 1.1302999 0.65930206 9.625
-3.7197192 1.3015743 0.65194255 9.4285717
-3.7195303 1.5535452 0.65780157 9.8000002
-3.7323148 1.6342193 0.68977636 9.636364
-3.6609631 4.1199288 0.68678993 10.195238
-3.6493418 4.2875495 0.65946674 9.7619038
-3.6427257 4.4763131 0.67945796 9.7222223
-3.6627717 5.1136565 0.67999089 10.343081
-3.6274147 5.3077292 0.66372025 9.916667
-3.6462264 5.4038277 0.71595043 10.5
-3.635766 5.7078533 0.68460578 10.54506
-3.6283636 5.8758488 0.6974501 10.174167
-3.6267805 6.1165638 0.69968551 10.228111
-3.6191156 6.2313728 0.65300351 9
-3.6433358 -5.2212515 0.89097881 10.5
-3.6757877 -1.8689992 0.82874459 12.049333
-3.7498715 -1.6905042 0.92913073 11.38
-3.7924969 -1.5211304 0.92414677 10.625
-3.7684672 -1.3039597 0.9422012 12.35
-3.7795534 -1.1082348 0.90502024 10.5
-3.7618909 -0.86141431 0.93350035 11.9
-3.7693105 -0.68614376 0.94843996 10.375
-3.7493215 -0.44953674 0.9493221 11.7125
-3.7588093 -0.30865136 0.93617731 10.375
-3.7382431 -0.097236015 0.93988824 11.416667
-3.7515204 0.11217795 0.92572218 10.375
-3.7355909 0.30623302 0.9294349 12
-3.7338381 0.48471147 0.93029159 10.916667
-3.7310743 0.69900101 0.91677022 11.5
-3.7230024 0.8871246 0.92532045 11.25
-3.7226262 1.1185633 0.90401632 11.4
-3.7177277 1.3021073 0.92207211 11.266666
-3.7135942 1.5366124 0.89995766 11.54
-3.727735 1.6460276 0.90546077 10.555555
-3.6715555 4.1128521 0.9215126 10.694445
-3.6252892 4.308639 0.94461989 10.8125
-3.6345251 4.484942 0.90553188 10.423077
-3.6682355 5.1026559 0.90056962 10.75
-3.6287246 5.287961 0.95160693 10.95
-3.6393852 5.5296383 0.92124033 11.674333
-3.6373262 5.7473121 0.93250263 11.088584
-3.6379764 5.8710618 0.86990774 11.31825
-3.6238103 6.1038694 0.92464209 10.403025
-3.6005185 6.2210646 0.94546092 11
-3.7358692 -5.3315086 1.000234 11
-3.7006793 -5.1498866 1.0140975 10.036
-3.6857944 -2.2198277 1.1983663 11.1035
-3.7574961 -1.8982418 1.1851206 12.035
-3.7742729 -1.6899933 1.1080092 12.208334
-3.781621 -1.4633375 1.0911992 11.1
-3.7190325 -1.3423799 1.139825 13
-3.7610402 -1.1262218 1.089499 10.916667
-3.7457561 -0.94868654 1.1049842 13.4
-3.7524042 -0.72788686 1.0918132 10.719999
-3.7377148 -0.59527177 1.0670784 13.5
-3.7525752 -0.32056615 1.1097257 10.969388
-3.7395101 -0.085101448 1.0960279 11.469833
-3.7494848 0.0835253 1.116447 10.75
-3.711448 0.32811347 1.0649163 12.75
-3.7467008 0.51909655 1.1259859 10.666667
-3.7091382 0.72038877 1.083586 13
-3.7383525 0.89107782 1.1181479 10.666667
-3.7052138 1.190071 1.1034679 13.4
-3.7318301 1.3072197 1.1101446 10.5
-3.717927 1.5628519 1.0793996 11.75
-3.7300615 1.6320835 1.0837379 11.214286
-3.6709785 4.1180959 1.1023397 11.837663
-3.6529977 4.3234282 1.097131 11.75
-3.6471581 4.458096 1.121769 11.342105
-3.6259022 4.6096234 1.1742446 10
-3.6691101 5.0918856 1.0881677 11.646658
-3.6346345 5.2940598 1.0962411 10.9
-3.6453331 5.4711471 1.0809563 11
-3.6341369 5.6772761 1.0943639 11.273143
-3.6172802 5.8965497 1.1361293 11.646403
-3.6321635 6.0880919 1.0685226 10.4375
-3.6754136 -5.2069225 1.2997707 11.666667
-3.7900379 -5.149313 1.3492168 13.5
-3.7116997 -2.2244432 1.2883497 11.5
-3.7426395 -2.1254613 1.2979704 11.853547
-3.7733512 -1.9091215 1.3248485 12.810643
-3.7624297 -1.7351431 1.3027432 13.4375
-3.7820122 -1.4735757 1.3258983 13.125
-3.7456825 -1.3090423 1.3553061 13.898
-3.755492 -1.1217167 1.2733225 12.792987
-3.7642152 -0.86566532 1.3268267 12.45
-3.7516675 -0.7082029 1.3176143 12.348374
-3.7423542 -0.50813699 1.2823372 13.547375
-3.7628572 -0.29106846 1.3673685 12
-3.762629 -0.054782603 1.2752974 11.833334
-3.7528069 0.089993298 1.3623117 11.875
-3.7454782 0.30719274 1.2944916 12.666667
-3.7485971 0.54468983 1.3250186 11.805554
-3.7278495 0.71900916 1.3244438 12.666667
-3.7323632 0.87926608 1.3016081 12.515709
-3.7379465 1.1154579 1.2718709 12.02325
-3.7167296 1.2833047 1.3539516 12.25
-3.7360737 1.5423018 1.3291388 12.168928
-3.7260184 1.6535249 1.2864914 12.166667
-3.6788087 4.1231174 1.308758 12.779773
-3.6431592 4.2960949 1.2981595 11.75
-3.6415396 4.4616032 1.2869551 12.601037
-3.7935362 4.6465306 1.3829472 11
-3.6847591 4.8974509 1.3791821 11.549084
-3.6752746 5.1125603 1.3045753 13.056842
-3.6314969 5.2801871 1.3387252 12.11445
-3.6255715 5.4798708 1.3349241 12.824714
-3.6534643 5.7153993 1.3275009 13.221916
-3.6318212 5.9249425 1.2822295 12.272083
-3.6280091 6.1122432 1.2471797 12.10605
-3.6325521 6.2032866 1.219485 11
-3.7120481 -5.272759 1.4362184 12.5
-3.6979418 -5.1658106 1.5201216 11.054
-3.6727023 -2.2313666 1.5163885 12.327356
-3.7650156 -2.109781 1.5159216 11.867249
-3.7541168 -1.932169 1.4661469 13.211125
-3.7867734 -1.703922 1.4313669 14
-3.7906334 -1.540756 1.5160127 12
-3.7973926 -1.2178613 1.417255 11
-3.7863264 -1.0831398 1.4721435 11
-3.797441 -0.82430649 1.4695871 10
-3.7743738 -0.70968539 1.4907731 11.5
-3.777766 -0.50299019 1.4533728 12
-3.7694476 -0.30688533 1.4765871 11.5
-3.7671702 -0.022986919 1.4661704 11
-3.7522256 0.12442262 1.4576993 12.166667
-3.7564695 0.38160229 1.4873648 12.032166
-3.7435501 0.49843481 1.4655367 12.625
-3.7469637 0.77614272 1.4463111 11
-3.7481046 0.9043231 1.4940594 11.333333
-3.7509944 1.09383 1.4360559 10
-3.7402601 1.2795893 1.5010304 11.333333
-3.7363179 1.5648401 1.4805853 11
-3.7549188 1.6575645 1.4730989 11.833333
-3.6857452 4.1140461 1.492208 12.307693
-3.655632 4.3409967 1.4424921 10.5
-3.648011 4.4841647 1.4728717 12.516667
-3.6337745 4.6951051 1.4856063 11.717999
-3.645854 4.904326 1.4906555 12.418352
-3.6385679 5.085856 1.4902272 12
-3.6387479 5.3124514 1.492587 11.97619
-3.6488481 5.5077744 1.4630451 11.4
-3.6428788 5.7097144 1.4984196 11.6
-3.6489201 5.867979 1.4347283 12
-3.6313665 6.0936093 1.4887536 11.528571
-3.6230597 6.204812 1.5335771 12
-3.6407974 -5.2086244 1.7543432 13
-3.7485392 -5.1493344 1.6002264 10
-3.7314928 -2.2216942 1.7082503 11.75
-3.7589388 -2.1200271 1.6691692 12.83725
-3.777776 -1.9164025 1.6912 13.901125
-3.7749221 -1.6844046 1.6986175 14.5
-3.7828348 -1.5327018 1.6757444 13.111111
-3.7736712 -1.2890005 1.703724 13.583334
-3.7659318 -1.1047763 1.7525265 14.277778
-3.7535603 -0.80416089 1.7716552 12.75
-3.7716753 -0.71562231 1.7145356 12.6
-3.7853801 -0.41493616 1.6560775 11
-3.7631378 -0.30961749 1.7020006 12.738096
-3.7698643 -0.032033458 1.6234037 12.5
-3.7567768 0.091902114 1.7164673 12.611111
-3.7423685 0.3939606 1.7763704 12.5
-3.7667305 0.47427797 1.6867405 11.75
-3.7394469 0.79031932 1.7821844 13
-3.7490969 0.83844143 1.7255265 12.4
-3.7861032 1.156619 1.7701368 11
-3.7322631 1.244184 1.7313645 12.388888
-3.7359324 1.5551544 1.7198213 12
-3.7678463 1.6888584 1.7441286 12.2
-3.6642747 4.1123829 1.7262702 12.1
-3.7120657 4.2569628 1.7312897 11
-3.6656189 4.467319 1.7223672 12.428572
-3.6734533 4.612669 1.7191333 11
-3.6494491 4.8721976 1.7150985 12.5
-3.6438229 5.1604824 1.725584 13.5
-3.6339054 5.27177 1.7415868 12.6
-3.6439404 5.543942 1.7003372 12.15
-3.640384 5.7099848 1.71612 11.5
-3.6320062 5.8055778 1.7303013 14
-3.6322896 6.0905633 1.6394281 13
-3.6195734 6.2211118 1.6026303 11
-3.6570749 -5.2481437 1.8632708 13.8041
-3.7669387 -4.3954229 1.9833776 14.1105
-3.6985407 -2.224098 1.8952628 13.316
-3.7567124 -2.1399515 1.9125706 13.095239
-3.76893 -1.9242584 1.9128234 12.333333
-3.7594068 -1.7899907 1.8960162 14.5
-3.7653415 -1.5260314 1.8880336 12.333333
-3.7939661 -1.3682897 1.9668365 11
-3.7693284 -1.1244454 1.9073571 12.6
-3.7884555 -0.81923628 1.9983393 11
-3.7656486 -0.73425889 1.8975947 11.666667
-3.7690444 -0.41486892 1.9841697 11
-3.7423246 -0.33323145 1.9122695 12
-3.7488961 -0.077008322 1.9060906 11.666667
-3.7193339 0.11435978 1.9097373 12
-3.7531703 0.31687209 1.8777376 13
-3.7280602 0.52876931 1.8819206 12.111111
-3.7367404 0.76791483 1.9339572 11
-3.7049787 0.88532293 1.8772246 12.75
-3.7273793 1.1483334 1.9273509 11
-3.6861334 1.3303794 1.9558299 13.666667
-3.7203536 1.5263896 1.9223144 11
-3.6854291 1.6897039 1.943302 13
-3.6979704 1.9185611 1.932079 12.333333
-3.6654022 2.1041937 1.9372095 13.666667
-3.6971247 2.3621266 1.9143393 11
-3.656713 2.4976702 1.9340705 13.666667
-3.6906943 2.7302186 1.9131029 11
-3.6563904 2.9090989 1.915548 12.8
-3.6662657 3.1520355 1.9238929 11
-3.6515992 3.2903805 1.9484358 12.666667
-3.6575532 3.5562475 1.924219 11
-3.6581459 3.685508 1.9515282 12.8
-3.6598477 3.9437356 1.9258398 11.5
-3.6609108 4.0707002 1.9098753 12.613334
-3.6427937 4.295969 1.9534106 11.666667
-3.6584604 4.4999714 1.9125971 12.125
-3.6135745 4.7211962 1.8762604 13.076875
-3.6538019 4.8612304 1.9256257 12.125
-3.645308 5.1072192 1.9053432 12
-3.6417255 5.3120484 1.8933675 12.833334
-3.6344664 5.5115743 1.8951972 12.125
-3.6265252 5.6782465 1.9058919 12.55
-3.6262038 5.8358212 1.9471271 11
-3.6151142 6.0066223 1.9577175 12
-3.6016753 6.2265692 1.9595563 12
-3.6967061 -5.2592826 2.1618741 14.340167
-3.6785164 -5.1708498 2.1853929 11.054
-3.7115946 -2.2373369 2.1300008 15.05425
-3.7653182 -2.1064489 2.0944159 12.5
-3.7736287 -1.8846972 2.1160555 13.777778
-3.7707653 -1.6306585 2.1070681 13.5
-3.7697346 -1.534657 2.1231267 13.875
-3.7570903 -1.3145956 2.1677921 12
-3.7630639 -1.1260056 2.1680877 13.25
-3.7461855 -0.8475886 2.1645043 13.5
-3.7481465 -0.73320735 2.1482108 13.2
-3.747071 -0.48528445 2.12814 12
-3.733835 -0.33775297 2.1333542 13.333333
-3.7225962 0.055261217 2.1174932 13.2
-3.7083368 0.38032895 2.0932128 14.5
-3.713299 0.48652935 2.0852058 13
-3.6937602 0.78830987 2.1196456 14
-3.7055459 0.87042433 2.0698559 13
-3.6924274 1.2620391 2.0841773 12.75
-3.6794598 1.451418 2.0938153 14
-3.6857476 1.6507417 2.074898 12.75
-3.6696239 1.9725879 2.0814924 14
-3.6716738 2.0918605 2.061892 12.333333
-3.6648602 2.4665334 2.0596437 12.666667
-3.6537123 2.8971646 2.0610104 12.75
-3.6507423 3.2480137 2.0626693 12.6
-3.6544821 3.4420874 2.0398469 12
-3.6405253 3.6774728 2.0669017 12.75
-3.657603 3.9751773 2.1012256 14
-3.6598239 4.0900536 2.0601869 12
-3.668272 4.2432399 2.001158 15
-3.6539814 4.4883642 2.0551 13
-3.6508577 4.8793311 2.0924835 12.857142
-3.616945 5.1051641 2.0163248 12
-3.6499274 5.2578158 2.1227462 13
-3.6389065 5.4851117 2.0930924 12.6
-3.6395485 5.6836534 2.1147444 13
-3.622736 5.9059348 2.0250416 12.75
-3.6261628 6.0861807 2.1169975 12.884719
-3.6068726 6.2102942 2.131253 13.025666
-3.7075145 -2.2136285 2.277127 14
-3.7577531 -2.1211967 2.3132894 14
-3.766634 -1.920748 2.279566 14
-3.7665372 -1.795976 2.3115869 14
-3.7690594 -1.5780603 2.245326 13
-3.7603717 -1.2089288 2.2390101 13.5
-3.7583406 -1.0974452 2.3783851 13
-3.7943265 -0.86604983 2.3932121 12
-3.7567697 -0.69654298 2.3194053 13
-3.7592652 -0.33666763 2.3535073 12.5
-3.7322707 0.071823403 2.2995408 13.166667
-3.7259753 0.45801866 2.2700882 13.25
-3.7081699 0.85620654 2.3413656 15
-3.7291319 1.1074903 2.3171325 12
-3.7046134 1.3104448 2.3157811 13.5
-3.697351 1.542142 2.3107297 15
-3.7007949 1.6566886 2.3058696 13
-3.690438 1.848948 2.3093047 12.1315
-3.6825354 2.1079211 2.2914762 13.15775
-3.6641004 2.2818217 2.2643747 13.5
-3.6734729 2.4944589 2.2885399 13.157562
-3.6740456 2.7476003 2.2841496 12
-3.6638684 2.9124074 2.2878096 13.157375
-3.6589699 3.2804222 2.2871673 13.5
-3.6548083 3.6956093 2.2935343 13.5
-3.675247 3.8840942 2.3795764 13
-3.6618237 4.093792 2.307318 14.125
-3.6475129 4.3210192 2.3381021 12.5
-3.663352 4.4421635 2.3212805 14.25
-3.6142683 4.7060237 2.2821953 12
-3.6653054 4.8094463 2.3725865 15
-3.6016979 5.1129065 2.2865484 12
-3.638366 5.6760049 2.2609961 12.333333
-3.634964 5.9344807 2.2968483 13.833333
-3.6346798 6.0879288 2.3061626 13.192833
-3.614706 6.2147717 2.3835771 13
-3.6127999 -4.6103396 2.5269196 14.11
-3.7550898 -4.4229851 2.5214858 14.611375
-3.7911491 -3.6729722 2.5168667 14.1065
-3.6552961 -2.1423528 2.4810646 13.666667
-3.7041314 -1.9062229 2.4982269 14
-3.7264464 -1.5214522 2.4676766 14
-3.6778586 -1.2519779 2.4992232 15
-3.6567988 -1.023206 2.5995278 14
-3.650387 -0.76470226 2.5720968 14.5
-3.6888556 -0.46504232 2.487592 15
-3.6866 -0.34964529 2.488502 14.5
-3.64977 -0.0060650171 2.5032086 15
-3.6245005 0.044518847 2.5216379 14
-3.6405427 0.3879005 2.4746666 15
-3.6161394 0.43844423 2.4990549 14
-3.639756 0.79316276 2.4516501 15
-3.637284 0.82506222 2.4678915 14.5
-3.6847968 1.1938417 2.4445109 15
-3.6794293 1.2139026 2.481617 14
-3.6868303 1.5176526 2.4333313 15
-3.6762803 1.6534872 2.4685862 14
-3.6714821 1.9169222 2.4620817 14
-3.6461837 3.2391262 2.4523177 14
-3.6391687 3.6487737 2.4574444 14
-3.6639147 4.1836147 2.4465289 15.085
-3.6526868 4.5820765 2.4767151 14.5
-3.6612484 4.7974358 2.4481525 14
-3.6510005 4.8451834 2.5006635 14
-3.6633537 5.0889683 2.4313426 13
-3.6285508 5.2367263 2.4719284 14.666667
-3.6542079 5.6811824 2.4447627 15
-3.652463 5.9196582 2.4685576 15
-3.6058586 6.0040693 2.4034903 13
-3.7686124 -10.584889 2.613369 13.085
-3.4532437 -1.4180957 -0.66678298 5
-3.491545 -1.2281291 -0.6322732 5.5
-3.5121953 -1.0650675 -0.6646595 4.5
-3.4409382 -0.022985661 -0.60210228 3.25
-3.5904779 0.90058458 -0.60336721 3
-3.55667 1.1163596 -0.6442374 2
-3.4667883 1.3164173 -0.62014854 2.3333333
-3.4768522 1.5073845 -0.64428902 2
-3.5229135 1.6594967 -0.60685021 3.25
-3.5202515 2.0691202 -0.64701074 4
-3.593704 2.2858608 -0.640634 3
-3.5531394 2.5550404 -0.64054519 4
-3.5591853 2.8894269 -0.6360355 4
-3.5088732 3.1384213 -0.63721544 3
-3.4604421 3.3085103 -0.63551706 3.5
-3.4455662 3.436888 -0.63546824 3
-3.4241202 3.8383586 -0.62539852 3
-3.4916413 4.8132687 -0.6087727 5
-3.4619262 5.1004629 -0.60596758 5
-3.5538268 -1.6342447 -0.55597645 4.4285712
-3.4912665 -1.1530699 -0.5421716 6
-3.511219 0.16139996 -0.56660092 4.5
-3.5473037 1.6376672 -0.54592216 5.6666665
-3.4268003 3.4421873 -0.59600616 4
-3.4822109 3.9473948 -0.58580607 5
-3.5544169 4.0925465 -0.51169807 4.7083335
-3.486608 -5.1755114 -0.28253415 7
-3.439461 -4.8656421 -0.35488918 7
-3.5892897 -0.1018284 -0.22165774 7
-3.4026263 1.5965288 -0.31016302 5
-3.4861505 1.6743329 -0.25738278 6.0833335
-3.5865691 4.1564479 -0.37157387 5.625
-3.5503068 4.2975888 -0.27647021 6.1466665
-3.5912151 4.4253097 -0.26989377 6
-3.5325971 -9.8081121 -0.068089761 7
-3.4634001 -9.7499428 -0.1359767 7
-3.4849229 -5.2197256 -0.067928761 7
-3.5138772 1.3136497 -0.10175911 7
-3.558022 1.5798476 -0.12083618 6.8333335
-3.4740396 1.6717821 -0.13917752 6.833333
-3.4363866 1.833802 -0.11782095 7
-3.5927582 4.1093593 -0.10909138 7
-3.5676262 4.4810047 -0.13977359 6.9285712
-3.5891376 5.1096148 -0.11070325 7
-3.567121 5.2180781 -0.021012092 8
-3.5567191 5.4195638 -0.023695067 8
-3.555532 5.6719241 -0.027091596 8
-3.4060678 -5.2156525 0.18122041 8.1044998
-3.5306363 -5.1431456 0.10159989 8
-3.5287066 -1.8222927 0.16990784 8.5780001
-3.570544 -1.7029368 0.19675004 8.5699997
-3.5042105 0.1816283 0.14191429 8.2646666
-3.5067723 0.28020126 0.12504627 8.2691069
-3.5323753 0.50170839 0.17582199 8.9827995
-3.5206199 0.6940127 0.15618223 8.2982502
-3.410176 0.99440944 0.1802116 8.0959997
-3.520992 1.1035198 0.17332193 8.2103329
-3.5177627 1.3086703 0.16104677 8.1144991
-3.5111451 1.482903 0.17954502 8.2834997
-3.4713151 1.6729964 0.11508137 8.1174688
-3.5928967 4.1180344 0.088734381 8
-3.5864284 4.2486858 0.12732677 8.3304996
-3.5799448 4.5029788 0.11573345 8.227273
-3.5894783 4.6001573 0.1506936 8
-3.5579338 5.1214995 0.13055001 8.267417
-3.5245576 5.2641268 0.058744889 8.0397501
-3.5742249 5.5281448 0.13166955 8
-3.5566382 5.6839314 0.13649043 8.1402149
-3.4973984 -9.8112879 0.2454261 8.0865002
-3.5194328 -9.7619658 0.27703544 8.0879993
-3.5099902 -5.2201276 0.27885258 8.3393335
-3.4852226 -1.5396752 0.22195007 8.5939999
-3.5167177 0.13623306 0.24247275 9.0228338
-3.5496426 0.24918504 0.26621106 9.0019913
-3.5090129 0.5399611 0.33238065 9.9172497
-3.5289836 0.67320997 0.26493609 8.8222637
-3.4714725 0.91873974 0.31043556 8.919487
-3.4948606 1.1653702 0.3023206 8.5620623
-3.5027754 1.3140595 0.27210757 8.808033
-3.5513647 1.5180509 0.28923261 8.929512
-3.5342989 1.6601207 0.2927376 8.4444447
-3.5830023 4.4658074 0.28101677 8.833333
-3.5721109 5.1226196 0.28250611 9.0625
-3.583802 5.3178344 0.2443576 8.3533335
-3.5817385 5.4994583 0.26830611 8.875
-3.5297372 5.7228837 0.26737899 8.6941872
-3.5832839 5.8747711 0.31895441 9
-3.5447016 -5.2084904 0.51328325 9.0089998
-3.5191216 -5.1385927 0.49122509 8.8039999
-3.5466392 0.47742853 0.4301306 11.0395
-3.5799232 0.62512016 0.43830654 10.702334
-3.5912547 0.91216868 0.42934373 11
-3.4891765 1.0924333 0.4132106 11.0525
-3.5730286 1.2947998 0.44561294 10.263888
-3.594317 4.3210421 0.43630692 8
-3.5873013 4.5075431 0.51522481 10.25
-3.5643091 5.1525645 0.50973386 10.166667
-3.5865116 5.3003602 0.46491739 9
-3.5639973 5.5064683 0.47304767 9.3256302
-3.5594711 5.7472153 0.51050776 9.264802
-3.5484118 5.872931 0.51186329 9.5
-3.5437465 6.0119772 0.58143121 10
-3.5580547 6.2726316 0.53948605 9
-3.4819763 -5.2327046 0.72800922 9.5528326
-3.450181 -5.1331434 0.68396491 10
-3.4310205 -2.1640589 0.63174993 9
-3.5724838 4.4817319 0.67459697 11.666667
-3.5693672 5.143157 0.68351603 10.666667
-3.5909145 5.2932153 0.67062306 9.5
-3.5870774 5.7280965 0.74956256 11.25
