# .PCD v0.7 - Point Cloud Data file format
VERSION 0.7
FIELDS x y z intensity
SIZE 4 4 4 4
TYPE F F F F
COUNT 1 1 1 1
WIDTH 1418
HEIGHT 1
VIEWPOINT 0 0 0 1 0 0 0
POINTS 1418
DATA ascii
11.69182 3.4861429 -0.12211872 0
11.757744 3.3918452 -0.82968092 0
11.830512 3.4886944 -0.81962639 0
11.725101 3.5618129 -0.699938 0
11.850761 3.3298028 -0.49124518 0
11.782117 3.5316164 -0.51382607 0
11.996889 3.5952835 -0.66003895 0
11.998907 3.5755153 -0.47171798 0
12.041763 3.4971445 -0.81776798 0
12.089867 3.3230243 -0.52774483 0
12.195339 3.3003926 -0.83839643 0
12.113917 3.4799354 -0.81698245 0
12.194213 3.306663 -0.68212169 0
12.130439 3.4956713 -0.68905979 0
12.138 3.5250494 -0.48085937 0
12.14731 3.4940426 -0.34484121 0
12.465581 3.4078078 -0.89233834 0
12.410523 3.5808952 -0.83385581 0
12.426414 3.3635693 -0.44784185 0
12.457579 3.4587746 -0.49596941 0
12.405095 3.3597167 -0.28299505 0
12.415999 3.3601942 -0.13801329 0
12.51742 3.3581607 -0.95243043 0
12.543036 3.546083 -0.8523286 0
12.573117 3.4110513 -0.49848729 0
12.569401 3.3883803 -0.28777939 0
12.580839 3.3761752 -0.11121978 0
12.586136 3.4662077 -0.11398636 0
12.547709 3.3232026 0.0023150137 0
12.623894 3.4275339 -0.68100208 0
12.617284 3.4931114 -0.6749084 0
12.602777 3.4737618 -0.52746016 0
12.634001 3.4725122 -0.28276387 0
12.73568 3.4048955 -0.88707793 0
12.784994 3.5183671 -0.86503088 0
12.708279 3.3943148 -0.72761744 0
12.788763 3.4960814 -0.72698927 0
12.768888 3.4237418 -0.46492109 0
12.79849 3.4907403 -0.46883428 0
12.745789 3.4182601 -0.31964147 0
12.767118 3.4873879 -0.31863233 0
12.744427 3.3560197 -0.17951292 0
12.979706 3.4196336 -0.83991838 0
12.913301 3.5667515 -0.85901034 0
13.002982 3.3998795 -0.71023428 0
12.974374 3.5621545 -0.70674932 0
13.019065 3.3399982 -0.49693954 0
12.954562 3.5547175 -0.51610231 0
13.144634 3.5863011 -0.85359311 0
13.183777 3.3832231 -0.69182163 0
13.19661 3.4749951 -0.76961386 0
13.213304 3.3552041 -0.48392361 0
13.214983 3.4787831 -0.46140605 0
13.213784 3.3418229 -0.28612947 0
13.38973 3.3597214 -0.84200811 0
13.312454 3.4038901 -0.66601342 0
13.401101 3.5430093 -0.71073049 0
13.324901 3.3964758 -0.47854185 0
13.432715 3.5394177 -0.48442578 0
13.378779 3.4001486 -0.27330896 0
13.442742 3.5229075 -0.34149414 0
13.402147 3.3558829 -0.15707996 0
13.626413 3.3276544 -0.88020873 0
13.541992 3.5491121 -0.88650578 0
13.593793 3.4347444 -0.71604168 0
13.606683 3.4024248 -0.47360212 0
13.53433 3.5879927 -0.50919592 0
13.565627 3.3934326 -0.25964317 0
13.528215 3.507448 -0.32418963 0
13.553902 3.3483183 -0.12594391 0
13.76602 3.3770156 -0.90545517 0
13.761657 3.5998182 -0.90180284 0
13.794975 3.353332 -0.68555254 0
13.797817 3.3164024 -0.57419074 0
13.804602 3.3302157 -0.28355971 0
14.03506 3.3396025 -0.90727586 0
13.998799 3.3297882 -0.65999925 0
14.033585 3.316757 -0.49513277 0
14.008162 3.3442445 -0.29193369 0
14.16849 3.3983495 -0.90340799 0
14.178054 3.3550344 -0.67289209 0
14.214801 3.3589964 -0.50342697 0
14.209634 3.3734703 -0.31097603 0
14.220121 3.3425267 -0.14276023 0
14.355699 3.4144926 -0.92443407 0
14.334195 3.3533194 -0.43762532 0
14.367894 3.3650301 -0.27239132 0
14.357849 3.3423994 -0.17425172 0
14.555704 3.4018943 -0.93875307 0
14.525735 3.3161736 -0.22799332 0
14.775944 3.3940926 -0.91259259 0
14.997668 3.3844423 -0.96450561 0
15.805847 3.4773672 -0.9334743 0
16.001738 3.5511341 -0.94048554 0
16.178736 3.5019083 -0.23212345 0
16.189447 3.5166845 -0.1868685 0
16.235588 3.4455841 -0.95556986 0
16.255333 3.3146002 -0.27875882 0
16.269936 3.3503489 -0.064765304 0
16.214466 3.5986805 -0.1660026 0
16.387751 3.3160768 -0.92717224 0
16.360872 3.5010936 -0.2080663 0
16.41419 3.503324 -0.098647065 0
16.495787 3.562665 -0.1128764 0
16.603609 3.3711517 -0.9691816 0
16.540384 3.5520296 -0.93018723 0
16.610275 3.5734551 -0.310996 0
16.759315 3.4430866 -0.10200029 0
16.864254 3.4908214 -0.92773438 0
16.851889 3.3237903 -0.084536798 0
17.015009 3.539887 -0.88783127 0
17.079872 3.5130134 -0.41545743 0
17.031326 3.4629688 -0.22068658 0
17.037107 3.4573233 -0.031107616 0
17.186924 3.3128681 -0.89583766 0
17.193718 3.5100868 -0.83208221 0
17.212645 3.3713555 -0.70290762 0
17.206842 3.5090847 -0.70393538 0
17.18709 3.5057528 -0.48571953 0
17.189802 3.5228522 -0.29799879 0
17.192808 3.3095231 -0.16049153 0
17.163658 3.5440297 -0.097181916 0
17.341093 3.5586874 -0.88401777 0
17.29801 3.5405157 -0.25602373 0
17.388678 3.5067081 -0.08056251 0
17.477936 3.3173132 -0.31878683 0
17.497749 3.5142491 -0.87124175 0
17.620052 3.3246973 0.076309375 0
17.57531 3.5057449 0.059060019 0
17.818363 3.354707 -0.90851724 0
17.766571 3.5429044 -0.89300281 0
17.915289 3.5768909 -0.8673588 0
18.081408 3.3348784 -0.94428468 0
18.42507 3.3536401 -0.92744172 0
18.316946 3.455471 -0.92057925 0
18.598749 3.5594904 -0.91738403 0
22.392654 3.4330666 -0.9277969 0
22.588039 3.3870699 -0.89359576 0
22.671551 3.45786 -0.89289355 0
22.782888 3.392828 -0.59696096 0
22.790873 3.3551993 -0.30003542 0
22.803328 3.4870687 -0.84683073 0
22.849323 3.3808477 -0.64187115 0
22.817009 3.5024264 -0.65883756 0
22.81089 3.4775791 -0.51848954 0
22.805548 3.4839044 -0.2933116 0
22.835083 3.3438811 -0.11461169 0
22.812729 3.4508815 -0.11567052 0
22.90118 3.3702669 -0.85345531 0
22.931026 3.4869962 -0.71860629 0
22.924683 3.3730872 -0.31311536 0
22.894913 3.4547427 -0.0329693 0
23.241346 3.5617118 -0.8399294 0
2.612144 3.8442714 -0.67534018 0
2.914207 3.7780678 -0.68320936 0
2.9018235 3.6169195 0.10386384 0
2.9509852 3.7113948 0.15475371 0
2.9670305 3.641711 0.26426771 0
3.0466142 3.8608932 -0.15897574 0
3.1670794 3.7379265 -0.72454244 0
3.2143173 3.6869278 -0.27743882 0
3.1574183 3.8215129 -0.26881859 0
3.1685026 3.8189964 -0.15426373 0
3.1952419 3.7883961 0.1493264 0
3.1011977 3.7080762 0.27053836 0
3.2976656 3.769968 -0.28647918 0
3.3642116 3.8279986 -0.66250998 0
3.4018097 3.6216717 -0.58568841 0
3.35519 3.7899964 -0.57647145 0
3.3945575 3.6335685 -0.26665607 0
3.3450658 3.7868826 -0.14468266 0
3.3885686 3.6582983 0.12685789 0
3.3443048 3.8496759 0.16048972 0
3.5167387 3.6958742 -0.53618723 0
3.5498557 3.7780914 -0.59314001 0
3.4816096 3.6958084 -0.06313128 0
3.5165436 3.8371429 0.18908328 0
3.6294723 3.6196492 0.11386673 0
3.7617664 3.7857988 -0.69174689 0
3.7705925 3.683455 0.096628286 0
3.7950134 3.8177869 0.14272895 0
3.8897369 3.6637087 0.086216137 0
3.9992454 3.6222811 -0.7062993 0
4.1690526 3.677727 -0.73414183 0
5.4692502 3.6264763 -0.78421777 0
5.609499 3.7238584 -0.79397082 0
5.7307377 3.6930749 -0.76633984 0
5.7419758 3.8762481 -0.74556458 0
5.9440713 3.6848812 -0.77452159 0
6.2221208 3.6537385 -0.72156638 0
6.2701921 3.6538889 -0.53916538 0
6.1559577 3.6404359 -0.086922109 0
6.3429022 3.698081 -0.68691683 0
6.3144116 3.6296136 -0.52948767 0
6.530241 3.7190766 -0.74872661 0
6.7634768 3.6019533 -0.81975317 0
6.7108784 3.6961682 -0.76797944 0
9.3527851 3.6385627 -0.83632004 0
9.3282995 3.789752 -0.81927043 0
9.4765081 3.6494329 -0.6726892 0
9.5309429 3.7001145 -0.81386852 0
9.5919161 3.7825601 -0.83058149 0
9.5679283 3.6094346 -0.71948749 0
9.5664349 3.8404412 -0.73948139 0
9.7905769 3.6873856 -0.80791789 0
9.6892366 3.8891251 -0.82462615 0
9.8009062 3.8202951 -0.70237261 0
9.9422598 3.7787025 -0.81035221 0
9.9889927 3.667798 -0.6973384 0
9.960434 3.8054268 -0.78475714 0
9.9649878 3.6163554 -0.55037165 0
10.169547 3.8874035 -0.8327868 0
10.125673 3.7128916 -0.71362936 0
10.12569 3.6930315 -0.53011656 0
10.197735 3.6586499 -0.32233283 0
10.187712 3.6523821 -0.1733187 0
10.22366 3.7973962 -0.64128417 0
10.238001 3.7879639 -0.51081318 0
10.203509 3.6117401 0.12758259 0
10.328165 3.7579186 -0.82575893 0
10.32027 3.8760138 -0.82179749 0
10.361302 3.7261136 -0.67631197 0
10.368799 3.860549 -0.68783718 0
10.405871 3.6666989 -0.50890428 0
10.385373 3.8745058 -0.51320297 0
10.40596 3.6684148 -0.29459494 0
10.399047 3.8927164 -0.29803339 0
10.442121 3.6377914 -0.077616297 0
10.411925 3.8816967 -0.09234152 0
10.410282 3.6884363 0.074172877 0
10.424015 3.8470249 0.10358168 0
10.492171 3.8736889 -0.46226412 0
10.564059 3.6804068 -0.2801218 0
10.519049 3.6741078 -0.08945094 0
10.528043 3.6778038 0.14878991 0
10.765759 3.6986549 -0.25594813 0
10.739305 3.6742764 0.11082938 0
10.957398 3.8417082 -0.82969689 0
10.932196 3.876754 -0.69741976 0
10.977328 3.8747241 -0.49643892 0
10.92526 3.7581992 -0.30236045 0
10.964542 3.8666277 -0.29990861 0
10.973969 3.7414706 -0.095405996 0
11.005425 3.7188032 0.077597477 0
10.984795 3.8942661 0.1023348 0
11.081515 3.6770611 -0.00095690123 0
11.275764 3.6876359 -0.51803607 0
11.195856 3.7460167 0.13583392 0
11.399821 3.72229 -0.19113235 0
11.370906 3.7377715 0.11702743 0
11.388635 3.8944869 0.10312644 0
11.445321 3.7390931 -0.49539083 0
11.588954 3.7647948 -0.81618345 0
11.62647 3.8919806 -0.85273951 0
11.592357 3.6812212 -0.67775202 0
11.594553 3.6996155 -0.48964137 0
11.59496 3.6759882 -0.301222 0
11.60121 3.7165213 -0.10540014 0
11.58845 3.7251959 0.071496181 0
11.733268 3.6859612 -0.69410741 0
11.917676 3.6883481 -0.80962747 0
11.936087 3.6979418 -0.63569319 0
11.933318 3.8477254 -0.79407573 0
11.993052 3.6452405 -0.54403579 0
12.212558 3.6398056 -0.88940614 0
12.093828 3.6437516 -0.45463854 0
12.575607 3.6947098 -0.89089864 0
12.972297 3.7675445 -0.8741042 0
13.198848 3.755203 -0.84928787 0
13.380887 3.6058793 -0.85298252 0
13.370448 3.6724372 -0.85656536 0
13.345955 3.7042594 -0.79238296 0
13.592589 3.8767886 -0.90046775 0
13.565868 3.6067166 -0.67748386 0
13.527802 3.7037594 -0.63973242 0
13.724501 3.7230339 -0.88247859 0
14.022653 3.6202338 -0.92740679 0
13.998029 3.8394942 -0.92840135 0
14.187228 3.7250612 -0.9461394 0
14.390564 3.6692712 -0.93163502 0
14.342318 3.7763698 -0.91281265 0
14.665672 3.652159 -0.91197401 0
14.576978 3.8534858 -0.92416382 0
14.761393 3.6737561 -0.91366357 0
14.787775 3.801759 -0.9018566 0
14.95929 3.6540353 -0.93005556 0
14.944157 3.8007812 -0.92311329 0
15.661962 3.7581768 -0.96468186 0
15.696846 3.6073658 -0.91919744 0
15.78239 3.8154132 -0.91934311 0
15.973124 3.6946902 -0.91437995 0
16.188133 3.6572108 -0.93295848 0
16.226532 3.6158693 -0.24837488 0
16.417551 3.6954355 -0.92497587 0
16.321005 3.8815517 -0.9184283 0
16.362411 3.674192 -0.069755197 0
16.393036 3.8820314 -0.054399107 0
16.522446 3.6564183 -0.93987262 0
16.592806 3.8511305 -0.92147857 0
16.549728 3.6007347 -0.30658877 0
16.560913 3.6828988 -0.055597208 0
16.765968 3.7340772 -0.91997486 0
16.73871 3.6704116 -0.29588065 0
16.778593 3.7313881 -0.065739043 0
16.811769 3.7132878 0.023918394 0
16.965494 3.6265521 -0.24683645 0
17.028425 3.7014241 -0.098795541 0
17.120813 3.6405563 -0.91215545 0
17.153881 3.6544917 -0.68966979 0
17.198673 3.6864152 -0.52908432 0
17.157166 3.6275933 -0.23796059 0
17.221973 3.7073231 -0.096227251 0
17.185492 3.8599467 0.03465721 0
17.323439 3.6221242 -0.90492487 0
17.323797 3.8607035 -0.88158011 0
17.347399 3.7184877 -0.28044087 0
17.372505 3.7140362 -0.085801721 0
17.397049 3.8617697 -0.069918886 0
17.353161 3.6920924 0.045257028 0
17.586254 3.7168355 -0.89261305 0
17.591208 3.8890891 -0.89551473 0
22.239721 3.7982676 -0.91987467 0
22.429962 3.6628754 -0.93527323 0
22.729916 3.6813376 -0.85184371 0
22.699251 3.8051929 -0.86321449 0
22.832756 3.6548343 -0.79191166 0
23.041109 3.7654386 -0.88986218 0
22.890846 3.6164193 -0.7124024 0
23.243292 3.770963 -0.82900488 0
23.211203 3.8446767 -0.90129417 0
23.319834 3.724124 -0.85544419 0
23.428968 3.8030624 -0.76910079 0
2.53771 3.9128559 -0.64929128 0
2.8846779 4.0632019 -0.63554019 0
3.0274453 3.9095473 -0.20548438 0
3.1883125 4.0225277 -0.28673318 0
3.3831866 4.0767083 -0.68812329 0
3.5378344 4.025969 -0.68035382 0
3.512424 4.1722026 -0.70756006 0
3.7276249 4.0572472 -0.70519495 0
4.0234613 4.044003 -0.72841197 0
4.1171098 4.0060673 -0.72561765 0
5.7514191 4.1495252 -0.73094308 0
5.9646516 3.9176307 -0.76196283 0
6.3428941 3.9637277 -0.69532663 0
6.3611565 4.1268249 -0.71592069 0
6.5276365 3.9442883 -0.66345459 0
6.5558829 4.1034799 -0.6794523 0
9.630724 4.0607209 -0.80829716 0
9.8598757 3.9731355 -0.80070305 0
9.7331038 4.0876985 -0.78906137 0
9.9617014 4.0265255 -0.81496269 0
10.009612 4.1591163 -0.78934753 0
10.358538 4.0259461 -0.82142067 0
10.383307 4.0019011 -0.67720896 0
10.400063 3.983706 -0.53949291 0
10.409747 3.9786727 -0.32364815 0
10.564883 3.9148834 -0.82569587 0
10.620828 4.099308 -0.82690215 0
10.57145 3.9395902 -0.67855275 0
10.565857 4.0513682 -0.72309077 0
10.549909 3.9844782 -0.58191121 0
10.779698 4.06988 -0.80684805 0
10.777378 3.9746525 -0.68380094 0
10.751378 4.0406551 -0.69956207 0
10.99347 4.0941572 -0.81866121 0
10.961918 4.0649834 -0.68805259 0
10.952546 4.0311942 -0.51762283 0
10.961007 4.0133991 -0.34523255 0
10.97745 3.9079628 -0.10362718 0
10.969116 3.9937773 -0.12073015 0
10.995684 3.9882681 0.0098310001 0
11.207814 4.1235309 -0.83729845 0
11.248787 3.9337645 -0.61943299 0
11.135737 4.0932117 -0.68252093 0
11.10541 4.0386219 -0.56497163 0
11.358812 4.1095915 -0.71469647 0
11.395951 4.1011348 -0.56758499 0
11.41245 3.9248965 -0.86049634 0
11.445751 4.0842204 -0.8225618 0
11.416638 3.9844065 -0.58796912 0
11.494449 4.112905 -0.80078381 0
11.540441 3.9151921 -0.67027539 0
11.510255 4.1009698 -0.67682385 0
11.5523 3.9320338 -0.50507015 0
11.520936 4.089273 -0.50299901 0
11.558188 3.9086745 -0.29092103 0
11.532747 4.0807104 -0.30296975 0
11.563036 3.9352279 -0.10501803 0
11.544589 4.0598159 -0.098036006 0
11.575146 3.9005101 0.097414121 0
11.547646 4.0337944 0.097865447 0
11.812592 3.9130127 -0.84623498 0
11.805112 4.1106329 -0.79422164 0
11.985761 3.9296846 -0.85342562 0
11.996869 4.1474204 -0.83329964 0
15.751103 4.0624666 -0.92966348 0
16.010386 4.0235415 -0.92925107 0
16.161581 3.9126887 -0.92910171 0
16.173965 4.1193542 -0.93069184 0
16.18837 4.1316967 0.030245082 0
16.234257 3.9154375 -0.058863163 0
16.456264 4.0408373 -0.90946591 0
16.440815 3.9978406 -0.22182857 0
16.370609 4.049181 -0.037427299 0
16.397703 4.0803728 0.039152578 0
16.559988 4.0667887 -0.92680418 0
16.51232 3.9164491 -0.21569972 0
16.530169 3.9052961 -0.11091468 0
16.520412 4.0695653 -0.070972674 0
16.789526 3.9266205 -0.91468871 0
16.722307 3.9358385 -0.080435537 0
16.757593 4.148716 -0.034424916 0
16.812298 4.0573878 -0.90906966 0
16.943289 3.9212852 -0.89861917 0
16.940493 4.1215324 -0.90829355 0
16.971903 3.9197955 -0.051825415 0
16.916159 4.1237221 -0.0035746868 0
17.133322 3.9143772 -0.90036696 0
17.175991 4.1317906 -0.89933324 0
17.41567 4.0622416 -0.90613693 0
17.529512 4.1922445 -0.92664987 0
17.741207 3.9052269 -0.89788544 0
17.778112 4.1275187 -0.88490909 0
17.986376 3.9875829 -0.88278353 0
17.925129 4.0500498 -0.89528656 0
25.757595 4.1506109 -0.83113408 0
0.071482748 4.4837737 -0.61212748 0
0.12541588 4.4878716 -0.53856069 0
0.37493312 4.3201714 -0.57930899 0
0.51466554 4.3773332 -0.55957603 0
0.76994371 4.3785157 -0.6277256 0
0.7948035 4.4755864 -0.60467911 0
0.88117969 4.321907 -0.62622303 0
0.9903242 4.2008924 -0.61429656 0
1.018239 4.2334676 -0.58789074 0
2.7233438 4.44031 -0.61224163 0
2.993659 4.4765544 -0.61056513 0
3.1457202 4.4389915 -0.6384533 0
3.3323245 4.2032261 -0.66337466 0
3.3477056 4.4043894 -0.67449021 0
3.4731779 4.3781576 -0.68757206 0
10.589749 4.3332496 -0.81231672 0
10.704819 4.3330579 -0.7917313 0
10.943323 4.2792673 -0.82423055 0
10.928462 4.4453216 -0.80457711 0
10.942327 4.343555 -0.77787244 0
11.01882 4.436698 -0.75998449 0
11.163616 4.2446833 -0.80840021 0
11.192798 4.2726483 -0.76907504 0
11.324782 4.2711391 -0.7759524 0
11.552115 4.2822285 -0.72999465 0
11.52997 4.2198844 -0.54028606 0
11.90598 4.2406893 -0.83320224 0
11.879912 4.4766698 -0.8007881 0
11.950146 4.3406472 -0.77839923 0
15.767336 4.2747483 -0.89205438 0
15.781112 4.4809337 -0.90060806 0
15.920824 4.2623835 -0.91352189 0
16.006493 4.4585834 -0.88720912 0
16.177357 4.2773342 -0.89620167 0
16.404022 4.2989511 -0.90872365 0
16.404314 4.2958879 -0.0011294292 0
16.600296 4.3352871 -0.91281903 0
16.586069 4.459259 -0.89705372 0
16.790897 4.466506 -0.89832377 0
16.788357 4.2888174 -0.050426211 0
16.793602 4.322351 0.046762042 0
16.810661 4.2517056 -0.91334057 0
16.993441 4.3284731 -0.90728503 0
17.190062 4.277422 -0.89500362 0
17.337521 4.4546561 -0.88336319 0
17.406183 4.3065472 -0.89056635 0
17.561367 4.3702984 -0.89308065 0
17.487318 4.3009152 -0.01421514 0
17.541222 4.2714481 0.071107768 0
17.705578 4.312005 -0.92179871 0
17.961206 4.4822273 -0.91581815 0
23.550552 4.3376822 -0.97852278 0
24.954069 4.4036508 -0.96485233 0
25.818966 4.4647703 -0.77410686 0
25.940056 4.2765532 -0.89490199 0
0.14837526 4.7422266 -0.52129948 0
0.22698553 4.7684793 -0.33423218 0
0.22140276 4.7658038 0.13192314 0
0.17284735 4.7758565 0.36060199 0
0.38408297 4.5725188 -0.51320505 0
0.34402651 4.6942911 -0.49257284 0
0.4037565 4.5807686 -0.29796863 0
0.35567689 4.687654 -0.31756836 0
0.40435755 4.604382 -0.12895541 0
0.36387721 4.6900086 -0.091154091 0
0.4041864 4.5715909 0.076823749 0
0.36238557 4.685523 0.1012699 0
0.39265376 4.5810742 0.31096596 0
0.35908189 4.6764688 0.30337557 0
0.57925594 4.7852707 -0.61365741 0
0.54518181 4.5444336 -0.54624534 0
0.48039693 4.675612 -0.50817311 0
0.4954617 4.5663877 -0.2896007 0
0.4794988 4.6996627 -0.30994555 0
0.47646976 4.5725942 -0.11741737 0
0.46772781 4.6918578 -0.084614985 0
0.51241869 4.5510383 0.122426 0
0.46866855 4.7261205 0.13403304 0
0.4780004 4.577064 0.22781189 0
0.47860241 4.715415 0.28718182 0
0.60574991 4.5686231 -0.618797 0
0.65695441 4.7458334 -0.6391024 0
0.78217316 4.715838 -0.59148079 0
0.8682127 4.6349645 -0.56272733 0
1.1544068 4.5918694 -0.60346931 0
1.1257875 4.7305818 -0.60658914 0
1.1069601 4.5535955 -0.58473074 0
15.917827 4.7487617 -0.89821923 0
16.204195 4.6294112 -0.88064301 0
16.310141 4.5615511 -0.90465415 0
16.314989 4.5866046 -0.89310205 0
16.567526 4.7385669 -0.87549454 0
17.036385 4.7728581 -0.87215245 0
17.193363 4.504591 -0.89314651 0
17.345963 4.713922 -0.87397921 0
17.593191 4.5093942 -0.88904262 0
17.52335 4.7789783 -0.86541772 0
17.750469 4.6057301 -0.88124746 0
17.746412 4.6789007 -0.88247454 0
23.42008 4.5429654 -0.91102338 0
23.641642 4.7721667 -0.95723677 0
24.965899 4.5556769 -0.92339867 0
24.927933 4.7225289 -0.88185579 0
25.445246 4.5358829 -0.029617704 0
25.452806 4.6843691 -0.87581116 0
25.786566 4.5913916 -0.98675793 0
0.14137834 4.8985305 -0.63888186 0
0.058351874 5.0506282 -0.62230188 0
0.13717535 4.8316255 -0.52872723 0
0.18282904 5.0589075 -0.54740286 0
0.1736114 4.8095589 -0.23397213 0
0.1811408 4.8106365 -0.042320307 0
0.15635967 4.8087192 0.18942571 0
0.35374057 4.928812 -0.60477585 0
0.35055614 4.9239898 -0.5842824 0
0.5452016 4.8568106 -0.56568891 0
0.81524032 4.9868321 -0.63639367 0
0.97780579 4.8372283 -0.63202184 0
1.0816121 4.9028354 -0.61102229 0
18.621466 5.0476475 -0.80837023 0
18.764809 4.928401 -0.83018988 0
18.966095 5.0001478 -0.83623624 0
18.955156 4.806581 -0.25489837 0
19.099003 4.9387417 -0.83846027 0
19.347948 4.9236779 -0.86624479 0
19.621784 5.0369701 -0.83976442 0
19.5963 5.0981669 -0.85753739 0
19.72213 4.8135238 -0.85845566 0
22.88479 4.8130412 -0.86215454 0
23.238724 4.8469381 -0.74882823 0
23.373695 4.9073009 -0.42335126 0
23.513494 5.0062113 -0.86593491 0
23.509193 5.0895109 -0.48897696 0
25.193094 5.0729032 -1.0046929 0
25.408052 4.8309336 -0.94924521 0
25.421432 5.0814471 -0.9066391 0
25.355057 4.8465567 -0.17365044 0
25.307777 4.9547501 -0.084194332 0
26.075169 4.8104296 -0.98501402 0
18.323202 5.2790737 -0.79219401 0
18.517218 5.3191299 -0.75921214 0
18.606737 5.2419062 -0.76776344 0
18.706692 5.3750324 -0.78479779 0
18.737408 5.2314892 -0.24759413 0
18.911341 5.1403599 -0.81912279 0
18.928621 5.2475109 -0.63386601 0
18.93574 5.3942013 -0.67391628 0
18.973829 5.381988 -0.49506626 0
19.007933 5.2086444 -0.31718653 0
18.996586 5.3749533 -0.3506653 0
19.09033 5.2137256 -0.7853477 0
19.040207 5.1841125 -0.50283408 0
19.079044 5.2115545 -0.24747525 0
19.053299 5.3689585 -0.29861915 0
19.088148 5.221096 -0.068304196 0
19.085449 5.3448362 -0.10942802 0
19.113478 5.189415 0.083444744 0
19.100018 5.3817091 0.050073244 0
19.592064 5.1018767 -0.78957748 0
19.773521 5.2484355 -0.84174019 0
20.350492 5.3661246 -0.88362026 0
22.84951 5.3182015 -0.86837035 0
23.030315 5.3076558 -0.90716445 0
23.787069 5.2387428 -0.91609991 0
23.941446 5.22505 -0.90456051 0
25.438435 5.1450481 -0.88692498 0
25.660236 5.2100358 -0.9410423 0
25.95216 5.3967657 -0.97124624 0
26.362251 5.3195896 -0.58107436 0
26.554537 5.2579956 -0.79897499 0
26.626965 5.2210608 -0.45350999 0
12.744599 5.4725099 -0.71330458 0
12.960552 5.404006 -0.70746487 0
12.993844 5.5797892 -0.69371146 0
13.14646 5.6068144 -0.7163735 0
13.321903 5.5784416 -0.69663602 0
13.324841 5.6884246 -0.68220598 0
18.398785 5.6785359 -0.75906491 0
18.49658 5.5804758 -0.68773955 0
18.505161 5.506566 -0.5335061 0
18.747513 5.5687017 -0.70079541 0
18.741009 5.6972055 -0.70236081 0
18.777081 5.5733333 -0.5534901 0
18.75308 5.5923615 -0.31600198 0
18.799761 5.6969862 -0.36554486 0
18.817955 5.4857655 -0.053107988 0
18.889143 5.5532975 -0.70132971 0
18.864002 5.5848012 -0.12759873 0
18.958506 5.5463409 -0.48588064 0
18.949173 5.5640259 -0.29279071 0
19.008354 5.4654756 -0.15307094 0
18.925325 5.6406956 0.057413824 0
19.050821 5.4677711 -0.60936987 0
19.045933 5.4197497 -0.43029445 0
19.038778 5.5060239 -0.43466133 0
19.043913 5.5755134 -0.30816042 0
19.080975 5.5863667 -0.11396988 0
19.111296 5.5731683 0.08568427 0
19.452623 5.4174681 -0.48873791 0
20.183401 5.5525041 -0.84034044 0
25.771486 5.452374 -0.91044891 0
25.702473 5.6131406 -0.79117435 0
25.935932 5.5547729 -0.90571851 0
26.023554 5.5303044 -0.92238855 0
26.127474 5.6060519 -0.56960142 0
26.382689 5.4125566 -0.9168101 0
26.294056 5.4630775 -0.64451808 0
26.429094 5.6121392 -0.6408897 0
26.617065 5.6330314 -0.59154505 0
12.658077 5.7988043 -0.68894297 0
12.832389 5.7611561 -0.68002814 0
13.134344 5.7240138 -0.69413614 0
13.053226 5.9355698 -0.66022819 0
13.130632 5.9933715 -0.11347487 0
13.15251 5.9439821 0.15144445 0
13.125829 5.9711742 0.27943045 0
13.583004 5.7257824 -0.68611246 0
13.728838 5.7533584 -0.70655781 0
13.695444 5.9612656 -0.68349302 0
13.799427 5.9902191 -0.68188983 0
15.995871 5.9088063 -0.75809741 0
16.146702 5.7108274 -0.78868216 0
16.319923 5.890203 -0.72869122 0
16.734743 5.9614277 -0.70150423 0
18.726112 5.995152 -0.75424999 0
18.771719 5.7574821 -0.52087134 0
18.804153 5.8424773 -0.19988702 0
18.798435 5.7191081 0.1383229 0
18.854414 5.7880654 -0.67843682 0
18.888672 5.7524414 -0.46823016 0
18.866636 5.7547946 -0.30898458 0
18.872231 5.7742901 -0.087866887 0
18.894266 5.8916512 -0.06055608 0
18.882687 5.778018 0.090512887 0
18.860834 5.9002523 0.10243403 0
18.976284 5.8683825 -0.21583369 0
19.097229 5.9997215 -0.76032645 0
19.08585 5.7221704 0.10483409 0
19.447155 5.9035211 -0.80640376 0
22.939968 5.7189751 -0.85300332 0
24.429237 5.8874846 -0.88155299 0
24.587084 5.8978701 -0.78901434 0
25.53828 5.7811341 -0.40522841 0
26.013651 5.7309275 -0.55307114 0
26.188845 5.7703137 -0.8969782 0
26.233702 5.9471321 -0.91713548 0
26.487995 5.9782748 -0.90470237 0
26.43697 5.8017898 -0.57968241 0
26.738646 5.7632151 -0.37989414 0
6.0980687 6.1735892 -0.56215554 0
6.2967882 6.032896 -0.56864852 0
6.490684 6.1473017 -0.57599801 0
6.7498107 6.1731977 -0.55624342 0
6.861865 6.1666656 -0.5453859 0
6.8764863 6.291266 -0.54409975 0
7.0987339 6.161736 -0.55702347 0
9.3670158 6.1573505 -0.64616913 0
9.3165693 6.1498847 -0.57980555 0
9.5080824 6.2143431 -0.57361579 0
9.7567101 6.0443335 -0.61718786 0
9.6713982 6.2458062 -0.62062585 0
9.8546772 6.2601848 -0.5749414 0
9.927845 6.2201242 -0.61498106 0
10.039501 6.1062708 -0.62626195 0
10.035498 6.2465658 -0.61767954 0
10.044313 6.1031709 -0.5994274 0
10.075202 6.2131658 -0.56818676 0
10.264662 6.2167349 -0.6100024 0
10.323756 6.2883825 -0.59603888 0
10.476426 6.0114603 -0.64330578 0
12.638414 6.0209641 -0.66963649 0
12.751518 6.1083851 -0.65125304 0
12.881596 6.1122241 -0.65485984 0
13.1133 6.1351142 -0.61025745 0
13.114134 6.0260291 -0.50486988 0
13.12609 6.1849213 -0.49348921 0
13.139649 6.2893305 -0.51565874 0
13.109995 6.0142422 -0.34671611 0
13.135048 6.1790009 -0.30041918 0
13.139769 6.2878981 -0.30748963 0
13.14548 6.1787515 -0.11624631 0
13.155806 6.1712184 0.11940095 0
13.158344 6.1819119 0.27436897 0
13.144279 6.2955155 0.29504621 0
13.377257 6.0347514 -0.64564413 0
13.372921 6.1605501 -0.52740782 0
13.242163 6.0486078 -0.35358799 0
13.348214 6.1684794 -0.29159829 0
13.244868 6.0548158 -0.096227184 0
13.318273 6.1396737 -0.10465765 0
13.239354 6.0505323 0.092187986 0
13.308908 6.1425209 0.12059811 0
13.262216 6.0601869 0.2680667 0
13.466748 6.0487332 -0.58947301 0
13.398424 6.1917038 -0.56507021 0
13.412491 6.1902704 -0.34322059 0
13.407092 6.163619 -0.095017105 0
13.41766 6.1932068 0.091065958 0
13.394368 6.2232757 0.2094584 0
13.506392 6.0209513 -0.65188539 0
16.383627 6.1050949 -0.73988402 0
16.489571 6.0661931 -0.73583949 0
16.479469 6.0056992 -0.21291983 0
16.991951 6.1642313 -0.74138921 0
18.305748 6.2770758 -0.78167135 0
18.585527 6.0098667 -0.75604457 0
18.722736 6.0689311 -0.76929992 0
18.858994 6.0605974 -0.72698438 0
18.882828 6.066689 -0.75204289 0
18.835239 6.0135813 -0.4971706 0
19.01965 6.2519341 -0.74033672 0
19.203587 6.1084232 -0.75882107 0
22.777424 6.2314944 -0.74809891 0
22.841421 6.0579629 -0.82831937 0
22.889666 6.1618929 -0.72337377 0
22.904352 6.1467047 -0.54333502 0
23.024385 6.282937 -0.88972288 0
23.704868 6.0200601 -0.92958027 0
24.866381 6.2827396 -0.48602778 0
25.361044 6.1213517 -0.83454472 0
25.369246 6.2362127 -0.75325722 0
25.450645 6.1252475 -0.34036049 0
25.549088 6.2154312 -0.53018945 0
26.39999 6.1204462 -0.59740067 0
26.258038 6.0412998 0.01556554 0
26.716049 6.1523929 -0.94448572 0
6.0765557 6.3407884 -0.5453431 0
6.1135411 6.5158405 -0.53283912 0
6.3204637 6.3760757 -0.52413201 0
6.3146486 6.5284557 -0.50172359 0
6.4552979 6.373991 -0.47216955 0
6.496758 6.4880633 -0.4308539 0
6.4724183 6.5664392 -0.3054356 0
6.4955902 6.5600905 -0.11988726 0
6.5090809 6.5654912 0.11584143 0
6.5254145 6.5588508 0.27972525 0
6.6900887 6.3487911 -0.50765109 0
6.6503873 6.4928956 -0.46490765 0
6.6640754 6.5354643 -0.30842745 0
6.6793609 6.5415945 -0.098353855 0
6.6840096 6.5483952 0.1124966 0
6.6733098 6.5533514 0.28612128 0
6.8725052 6.5398021 -0.5007385 0
6.8330374 6.5909991 -0.25078639 0
6.8125997 6.5758004 -0.11889095 0
6.8301353 6.5851507 0.28200328 0
7.0887885 6.410686 -0.55221522 0
7.157372 6.5365663 -0.57327312 0
7.1896949 6.3846092 -0.57403445 0
9.462285 6.4120522 -0.57981288 0
9.6888103 6.5904751 -0.61880338 0
9.7283392 6.3438888 -0.57407784 0
9.7152596 6.3626261 -0.58696568 0
9.7763329 6.334023 -0.39945266 0
9.7278166 6.4614048 -0.25364712 0
9.7488794 6.5973639 -0.2238147 0
9.7469482 6.4893541 -0.11511939 0
9.7442007 6.5862532 -0.097341463 0
9.7288694 6.4789538 0.12326482 0
9.7137527 6.5908756 0.12878408 0
9.7087965 6.4811568 0.29576945 0
9.692461 6.5825348 0.32290509 0
9.8635015 6.4981928 -0.46898296 0
9.8306274 6.5224867 -0.26986116 0
9.8318281 6.5103106 -0.083774984 0
9.8367872 6.502398 0.10922293 0
9.8726149 6.5201907 0.28248033 0
10.112453 6.5192542 -0.60131288 0
10.110598 6.3873239 -0.58437347 0
9.9869833 6.527041 0.13156189 0
10.282955 6.4905658 -0.58752137 0
10.477847 6.3309617 -0.62905002 0
10.409558 6.3702512 -0.61336553 0
10.415084 6.3007317 -0.58946359 0
12.687087 6.3776364 -0.68106824 0
12.7265 6.5503063 -0.63879144 0
12.804223 6.459837 -0.64118952 0
13.124348 6.3106689 -0.60441208 0
13.023907 6.531086 -0.68433064 0
13.142362 6.3084803 -0.12797484 0
13.141324 6.3148298 0.10632936 0
13.313381 6.3179193 -0.51579732 0
13.304781 6.3049545 -0.28593388 0
13.293181 6.324676 -0.08610341 0
13.288304 6.3140192 0.11302431 0
13.266367 6.3154087 0.28131467 0
13.417306 6.5723906 -0.65828872 0
13.389994 6.5993614 -0.28163517 0
13.704299 6.3797598 -0.65734881 0
13.756781 6.5706987 -0.68080395 0
16.259171 6.338367 -0.71962374 0
16.354988 6.5312796 -0.71278018 0
16.488663 6.3528719 -0.68334246 0
16.527233 6.489162 -0.67397743 0
16.542223 6.5915413 -0.6696623 0
16.547726 6.51653 -0.53745377 0
16.55481 6.5237103 -0.34358707 0
16.572584 6.5842628 -0.27621609 0
16.571415 6.5109468 -0.13215528 0
16.704607 6.3381019 -0.73948926 0
16.631594 6.4683619 -0.64175069 0
16.633698 6.5091729 -0.49933457 0
16.663095 6.5056596 -0.26450774 0
16.663427 6.5996251 -0.24327771 0
16.596024 6.3546491 -0.056870759 0
16.664762 6.5004096 -0.077361166 0
16.601526 6.5369153 0.0009402663 0
16.785982 6.4342122 -0.036821645 0
17.03916 6.4848881 -0.73050892 0
22.752918 6.3469968 -0.81474882 0
22.694151 6.5130162 -0.8401829 0
22.690487 6.4202828 -0.7501722 0
22.878555 6.3353424 -0.65867954 0
22.800602 6.4246702 -0.69388199 0
22.991772 6.514884 -0.018335035 0
23.139608 6.3161359 -0.29203892 0
23.921438 6.563345 0.0048853979 0
24.287056 6.5214529 0.0094250338 0
24.430275 6.4127007 -0.89000463 0
24.442953 6.5376549 -0.90382791 0
24.463352 6.3215318 -0.77440816 0
24.522509 6.3603086 -0.041379001 0
24.670582 6.3806181 -0.92841512 0
24.634417 6.5656381 -0.68411595 0
24.74214 6.3326216 -0.4393464 0
24.662848 6.580862 -0.26006258 0
24.811424 6.5649796 -0.57263088 0
24.838028 6.3957624 -0.35481894 0
24.798227 6.3248234 -0.19542502 0
24.935106 6.5719762 -0.71014982 0
24.900276 6.4859977 -0.32623851 0
25.045479 6.4395432 -0.51420063 0
25.019173 6.5569582 -0.50970829 0
25.062504 6.5985889 -0.3770327 0
24.99605 6.4364514 -0.14203033 0
25.05274 6.5841918 0.059489671 0
25.384315 6.5209484 0.1370596 0
25.466637 6.4911218 -0.12933263 0
25.578024 6.3264213 -0.38758481 0
25.947283 6.417058 -0.50204736 0
26.069551 6.4363074 0.12825054 0
26.458775 6.411078 -0.59007621 0
6.0908189 6.7444882 -0.5281015 0
6.2794528 6.746985 -0.49093381 0
6.3464265 6.6898475 -0.37858513 0
6.3273816 6.899334 -0.23828356 0
6.4063644 6.7167077 -0.43673205 0
6.4528193 6.7324276 -0.30184886 0
6.4731469 6.8921161 -0.27945217 0
6.4750481 6.7309079 -0.10951052 0
6.55305 6.8692117 -0.19980292 0
6.4855304 6.7247844 0.11334772 0
6.5489445 6.8409514 0.052229799 0
6.5056958 6.726418 0.30593923 0
6.4997315 6.8559647 0.30914655 0
6.7348738 6.804059 -0.27189261 0
6.6503282 6.8706741 -0.30356896 0
6.7137733 6.7830143 -0.097191975 0
6.6180778 6.85814 -0.13300836 0
6.7174397 6.7709322 0.093261547 0
6.6404824 6.8538523 0.12497699 0
6.6786432 6.7851663 0.3026965 0
6.6420841 6.8580675 0.27331758 0
6.8625946 6.7544117 -0.46389091 0
6.8494763 6.883553 -0.50297582 0
6.8249631 6.7659421 -0.3004812 0
6.7829461 6.6959634 -0.11483346 0
6.8123412 6.6006393 0.058211576 0
6.807981 6.7195029 0.029852005 0
6.789814 6.6871309 0.32753596 0
6.9844756 6.8375149 -0.44306841 0
9.3036261 6.6128888 -0.57331967 0
9.3114014 6.8721108 -0.55710763 0
9.427537 6.6487198 -0.55829507 0
9.520175 6.8454194 -0.57033551 0
9.6686773 6.8828468 -0.624183 0
9.6943321 6.6875277 -0.5036689 0
9.7241964 6.8273835 -0.53530258 0
9.8455553 6.6397347 -0.49076197 0
9.8723202 6.8119779 -0.46249047 0
9.8307199 6.6660566 -0.28331223 0
9.893445 6.7894354 -0.26864067 0
9.8698015 6.649106 -0.093794584 0
9.8959503 6.8093424 -0.099127591 0
9.8871832 6.6501646 0.12060205 0
9.8766651 6.6419115 0.29140732 0
9.9135799 6.8348269 0.12914859 0
9.9111567 6.811543 0.2901265 0
10.080283 6.6628504 -0.44797993 0
10.036506 6.853961 -0.46203083 0
10.033436 6.6740251 -0.29865348 0
10.004936 6.8315377 -0.30285996 0
10.033803 6.7095809 -0.099657044 0
10.031915 6.8391008 -0.081209227 0
10.014613 6.7015142 0.088072702 0
10.030508 6.8355961 0.11561573 0
10.027294 6.668467 0.3071956 0
10.017364 6.8402596 0.30517653 0
10.304804 6.6615314 -0.57413292 0
10.410626 6.6586108 -0.55869216 0
12.679955 6.765306 -0.64538473 0
13.166775 6.8028045 -0.64157623 0
13.178942 6.8181028 -0.6530652 0
13.254122 6.6581631 -0.64682496 0
13.509889 6.7443151 -0.67088145 0
13.653722 6.7601566 -0.64731008 0
16.231201 6.7117314 -0.70088637 0
16.364807 6.8567991 -0.70301735 0
16.391523 6.8142896 -0.7128042 0
16.558617 6.631053 -0.44895646 0
16.641726 6.6279397 -0.6234827 0
16.705889 6.8057051 -0.71537578 0
16.695045 6.6101799 -0.43416089 0
16.671108 6.6041594 -0.084689178 0
17.046343 6.660027 -0.75359863 0
21.276211 6.6561079 -0.82668257 0
21.176947 6.8253164 -0.82250625 0
21.179569 6.7905269 -0.7940923 0
21.667757 6.8838792 -0.84521967 0
22.25971 6.8491187 -0.85023832 0
22.416697 6.7841892 -0.89530641 0
22.470274 6.6415415 -0.74489856 0
22.440584 6.8820982 -0.75970912 0
22.733938 6.6155291 -0.74905711 0
22.718832 6.8354425 -0.79224652 0
23.064379 6.7748218 -0.33060193 0
22.997852 6.7755275 -0.011384676 0
23.057825 6.7572265 0.047543503 0
23.138552 6.6190038 -0.83760345 0
23.130108 6.7552843 -0.6548326 0
23.115843 6.8915958 -0.6569587 0
23.251104 6.7955976 -0.52029985 0
23.977167 6.6662307 -0.81682497 0
23.794619 6.7961416 -0.67141354 0
23.798397 6.8495331 -0.79428363 0
23.96497 6.6779881 -0.33735955 0
23.981647 6.8853579 -0.41109177 0
24.097242 6.663362 -0.8319537 0
24.011566 6.6584268 0.014017787 0
24.212469 6.8451467 -0.74118531 0
24.261002 6.8817253 -0.72813547 0
24.326893 6.8048425 -0.043524545 0
24.484232 6.7846203 -0.49231386 0
24.591995 6.8874755 -0.43539035 0
24.666761 6.7549329 -0.68205744 0
24.680902 6.6445141 -0.59184915 0
24.656454 6.7596054 -0.44723943 0
24.716923 6.6980505 -0.3539809 0
24.61688 6.6223488 -0.05336589 0
24.735649 6.670825 -0.0022037621 0
24.790051 6.7760148 -0.52477306 0
24.791048 6.7872858 -0.018927637 0
24.97101 6.6610003 -0.058565788 0
24.986641 6.6026545 -0.034272328 0
25.005209 6.7333264 -0.1112376 0
25.201231 6.6334696 0.22991924 0
25.982603 6.6082754 -0.56625491 0
25.886621 6.7979398 0.24681281 0
26.115799 6.6112685 -0.67660481 0
26.137688 6.6167183 -0.52690887 0
6.1499615 6.9306812 -0.53286278 0
6.0205021 7.0829015 -0.56898618 0
6.2774096 6.9183497 -0.50826126 0
6.2343421 7.105268 -0.54314744 0
6.3283238 7.0420041 -0.22071552 0
6.4702907 6.9165606 -0.46167108 0
6.6776299 6.9200435 -0.44164479 0
6.6773434 7.1630878 -0.53120846 0
6.8214216 7.167326 -0.49270204 0
7.0109067 7.0485454 -0.50824338 0
9.4831905 7.0371127 -0.57275975 0
9.6914196 7.0375724 -0.60581791 0
9.6876011 7.030005 -0.57792199 0
9.8467216 7.0544991 -0.55313611 0
10.066278 7.0538197 -0.51754564 0
10.001143 6.9670405 0.04551895 0
10.317362 7.0493555 -0.56175309 0
10.407431 6.925015 -0.43785843 0
10.464145 7.068182 -0.56137776 0
16.355547 7.0276709 -0.7307806 0
16.353733 7.1955624 -0.70601702 0
16.472925 7.0757775 -0.71317726 0
16.619276 7.1993527 -0.80928069 0
16.731989 7.0903497 -0.73282146 0
16.851637 7.0870752 -0.76132947 0
20.809372 7.0537734 -0.85653281 0
20.871218 7.0371175 -0.77269125 0
21.098875 6.9895062 -0.83027112 0
21.252663 7.0233259 -0.65687585 0
21.25061 7.1071248 -0.46851605 0
21.308159 7.1293192 -0.29983878 0
21.484362 7.0039501 -0.71661156 0
21.396259 7.0083823 -0.3745046 0
21.504656 7.1055136 -0.076480269 0
21.624977 7.1936307 -0.76469851 0
21.811131 7.0086846 -0.78106201 0
22.166048 7.1039877 -0.82643533 0
22.39621 6.9893365 -0.86816007 0
22.55637 7.1039529 -0.073064238 0
22.642363 7.093205 -0.62287772 0
22.595385 7.1411676 -0.4996804 0
22.645885 7.1070914 -0.29471987 0
22.586296 7.1579156 0.06331306 0
22.793333 7.1159334 -0.72561574 0
22.788048 7.1970797 0.030355921 0
23.082539 7.0841141 -0.68062729 0
23.07032 7.0767617 -0.37149069 0
23.0949 6.9638472 -0.045973435 0
23.02676 6.9138145 0.075216293 0
23.134109 6.9059319 -0.50029534 0
23.113789 7.1091046 -0.46281397 0
23.112867 6.9580178 -0.37296095 0
23.10824 7.0913343 0.047187611 0
23.257839 7.0368185 -0.64090651 0
23.285862 7.1153769 -0.44261721 0
23.196159 6.9902 -0.21910039 0
23.193884 6.9669275 -0.10874059 0
23.21093 7.1411505 -0.091873564 0
23.229406 6.9549508 0.075088479 0
23.251978 7.1431446 0.085646808 0
23.380955 7.0587749 -0.43517697 0
23.399305 7.1587706 -0.36887971 0
23.436163 7.0948558 0.066041075 0
23.733126 6.9047489 -0.89483339 0
23.888428 6.9465427 -0.81128871 0
23.886618 6.9660549 -0.40286517 0
23.905737 7.0970159 -0.070744477 0
24.032322 6.920135 -0.084840707 0
24.758228 6.9709272 -0.060806677 0
24.710506 6.933826 0.17160842 0
24.896976 6.9372368 -0.23547982 0
25.044291 6.956327 0.25835013 0
25.271513 6.9280276 0.55154824 0
25.280329 7.0170317 0.65503621 0
9.7150507 7.2087679 -0.61564237 0
9.6981993 7.4259229 -0.6236431 0
9.6415176 7.243381 -0.57546717 0
9.7659283 7.3253455 -0.64486891 0
9.8274231 7.4512153 -0.60196763 0
9.8428841 7.2699676 -0.58201873 0
9.7666693 7.4250503 -0.58899587 0
10.257052 7.2286139 -0.47005066 0
10.223851 7.4418859 -0.55790275 0
10.442732 7.2451744 -0.57113802 0
10.400891 7.4195747 -0.57870287 0
17.892244 7.3557014 -0.75524229 0
17.846941 7.4384446 -0.78565246 0
17.980597 7.4731903 -0.80042839 0
18.075224 7.3690977 -0.7833252 0
18.08602 7.4711285 -0.77268589 0
18.167055 7.4046168 -0.78009349 0
18.451561 7.2827158 -0.76191998 0
18.426641 7.4778786 -0.64411545 0
18.712429 7.3605156 -0.801018 0
18.826982 7.4060497 -0.77539361 0
19.019625 7.2342057 -0.80950558 0
18.985134 7.4787617 -0.81808215 0
19.691551 7.2808037 -0.81977546 0
19.645824 7.3044252 -0.80429274 0
19.581764 7.4175668 -0.79192901 0
19.576694 7.4183989 -0.59307665 0
20.041929 7.3924894 -0.74438077 0
20.267166 7.4798307 -0.80873632 0
20.181561 7.2539611 -0.68886822 0
20.160532 7.3410811 -0.78231663 0
20.425694 7.3511114 -0.80995256 0
20.413408 7.2152872 -0.760786 0
20.412971 7.4465084 -0.73206878 0
20.621555 7.4799786 -0.75241208 0
20.925362 7.270195 -0.83085567 0
20.890688 7.2751637 -0.77806449 0
20.762388 7.4423008 -0.76121289 0
20.961388 7.2317309 -0.8063426 0
21.028046 7.2169442 -0.78535986 0
21.067816 7.4075127 -0.74687612 0
21.170969 7.2153611 -0.81490064 0
21.21838 7.2633152 -0.77828461 0
21.261299 7.3097878 -0.49270466 0
21.237701 7.4708943 -0.52852201 0
21.277489 7.2721705 -0.27667925 0
21.284721 7.4627066 -0.34159055 0
21.27755 7.3080215 -0.10125064 0
21.287086 7.4770412 -0.066668689 0
21.328554 7.3067541 0.010451167 0
21.462925 7.2744265 -0.78170085 0
21.476686 7.4195395 -0.72763187 0
21.542572 7.3248529 -0.47929093 0
21.432903 7.48417 -0.46746096 0
21.416975 7.2288823 -0.037551325 0
21.381355 7.4437675 0.098688804 0
21.62727 7.4566069 -0.67718923 0
21.941248 7.4407005 -0.66150534 0
21.948542 7.4463735 -0.097049862 0
21.93453 7.2508297 0.11413004 0
21.993273 7.2481031 -0.80097514 0
22.089533 7.3250732 -0.66305953 0
22.072729 7.3984418 -0.76520574 0
22.145344 7.3031259 -0.47839734 0
22.081457 7.4031396 -0.59558845 0
22.14253 7.3137221 -0.35071686 0
22.077953 7.4027877 -0.29900563 0
22.082878 7.403677 -0.12692846 0
22.054255 7.4893365 0.1030006 0
22.197556 7.4614754 -0.35593745 0
22.307201 7.2255335 -0.83191818 0
22.207628 7.3260717 -0.70289028 0
22.221561 7.4915195 -0.70016164 0
22.280146 7.3532448 -0.54094672 0
22.248449 7.399447 -0.59235173 0
22.228445 7.3400755 -0.32720786 0
22.201408 7.3079829 -0.1071816 0
22.218218 7.2822313 0.096396908 0
22.395094 7.405458 -0.70554465 0
22.47851 7.4216733 -0.57760251 0
22.550449 7.2763944 -0.71108592 0
22.539597 7.2891612 0.10139617 0
22.61694 7.2365212 -0.64402193 0
22.623199 7.235219 -0.41205883 0
22.599632 7.2687316 -0.30147278 0
22.615658 7.2546101 -0.11397022 0
22.620245 7.2702575 0.082678944 0
22.670019 7.4083667 0.062275127 0
23.069805 7.2865334 -0.3489376 0
23.104027 7.2442017 0.27075765 0
23.259735 7.300652 -0.036221452 0
23.258339 7.2642641 0.11966014 0
23.377863 7.2938423 0.09430185 0
25.728239 7.2722721 0.89962 0
25.978983 7.252069 0.77203387 0
26.171406 7.4217749 1.2332785 0
17.442144 7.746232 -0.75273794 0
17.569302 7.5836987 -0.76243991 0
17.747889 7.6686368 -0.81351662 0
17.89908 7.6626062 -0.76875246 0
17.993046 7.665967 -0.75482076 0
18.090853 7.7750978 0.12920852 0
18.295341 7.7907114 -0.74980676 0
18.169773 7.7697172 0.10501845 0
18.434881 7.6828585 -0.71189523 0
18.691031 7.5961223 -0.7841447 0
18.639036 7.7398601 -0.70988387 0
18.627279 7.5737667 -0.21215694 0
18.637136 7.776382 -0.3097201 0
18.648458 7.7672973 -0.13184921 0
18.830212 7.7941852 -0.68186021 0
19.137529 7.625001 -0.75814641 0
19.098322 7.7988753 -0.67765057 0
19.445568 7.5906453 -0.76155841 0
19.423273 7.5882149 -0.36152086 0
19.374088 7.7848048 -0.10234292 0
19.628212 7.6255765 -0.73685622 0
19.660902 7.76473 -0.74755603 0
19.57185 7.6359844 -0.54052854 0
19.75424 7.7780881 -0.64689553 0
19.865658 7.5025606 -0.80407071 0
19.980751 7.6886697 -0.76684678 0
20.220341 7.695447 -0.68824947 0
20.299673 7.7062321 -0.53099257 0
20.302603 7.7701364 0.10666515 0
20.408983 7.6981554 -0.3262907 0
20.603531 7.6760125 -0.1177692 0
20.645132 7.6780462 0.028446093 0
20.780462 7.5101423 -0.80563283 0
20.901846 7.6027179 -0.75477374 0
21.145838 7.6286554 -0.59744883 0
21.187059 7.5012331 -0.65353572 0
21.272894 7.5679412 -0.72057456 0
21.210152 7.6357927 -0.49239647 0
21.272423 7.6246967 -0.29489449 0
21.265463 7.5930495 -0.13861358 0
21.31292 7.5104423 0.11738582 0
21.311295 7.6499438 0.1184357 0
21.349922 7.7967272 -0.71425712 0
21.36726 7.6754408 -0.5140413 0
21.417059 7.7926259 -0.54573822 0
21.398233 7.5115991 -0.32105356 0
21.391991 7.6293688 -0.29729685 0
21.37027 7.6144066 -0.066020235 0
21.359324 7.7946973 -0.046831883 0
21.404985 7.6760612 0.10643442 0
21.605246 7.6090717 -0.26910642 0
21.929478 7.6463389 -0.71860743 0
21.902811 7.5326147 -0.3638722 0
22.108976 7.7610822 -0.59895617 0
22.296598 7.7140298 -0.060400721 0
22.202803 7.5587373 0.11805932 0
22.471891 7.7018242 -0.8034935 0
22.4252 7.7478747 0.04988151 0
22.524782 7.7280197 -0.73848903 0
22.62285 7.7082472 -0.55476844 0
22.628672 7.7733722 -0.32712775 0
22.890125 7.5786138 -0.71079576 0
22.947403 7.605422 -0.34282824 0
22.921484 7.658258 -0.24198689 0
12.421527 7.8819485 -0.62530839 0
12.465596 8.0104179 -0.59997571 0
12.623273 8.007987 -0.62243253 0
12.685041 8.0914717 -0.61285841 0
12.807221 7.8480878 -0.62128639 0
12.807548 7.9601274 -0.62492454 0
13.029998 7.9619322 -0.6186381 0
12.949303 8.069088 -0.63004291 0
15.358097 8.0679121 -0.6776734 0
15.599343 7.8148274 -0.67997152 0
16.001051 7.9035668 -0.69078094 0
16.292356 7.8995075 -0.69054419 0
16.275085 8.0811768 -0.71163595 0
16.412411 7.8358765 -0.71594143 0
16.401413 8.0357332 -0.20327353 0
16.501673 7.9986835 -0.70739144 0
16.606367 7.8675089 -0.74288613 0
16.657902 8.0133257 -0.71294385 0
16.871235 7.8854113 -0.69475383 0
16.901896 8.0867767 -0.68182522 0
17.103161 7.9768543 -0.73735648 0
17.2218 7.8747106 -0.71823579 0
17.368708 7.9302559 -0.77058113 0
17.659403 7.9211392 -0.72440058 0
17.626133 8.0323839 -0.70041806 0
17.652046 7.8903108 -0.15865548 0
17.659233 8.0533562 0.017141735 0
17.812704 7.9901934 -0.65128744 0
17.869898 7.9848905 -0.48508483 0
17.833633 8.0870047 -0.51336873 0
17.835716 7.9562106 -0.33938783 0
17.910801 7.9596553 -0.075759567 0
17.967251 8.0240011 -0.53553617 0
17.950127 8.056922 -0.015234514 0
18.027548 7.9346123 -0.68747187 0
18.013781 8.0579615 -0.56323922 0
18.019791 8.0308542 -0.29337737 0
18.072344 7.9616899 0.054083642 0
18.229475 7.9619269 -0.67295933 0
18.237894 7.9815097 -0.4969196 0
18.245304 7.9967713 -0.29906964 0
18.222712 7.9683166 0.077679485 0
18.313557 8.0559711 -0.54489654 0
18.419895 7.9185719 -0.67377329 0
18.439236 7.996007 -0.52100676 0
18.459885 8.074913 -0.47257632 0
18.48777 7.9453387 -0.33585241 0
18.482655 7.9798031 -0.075677469 0
18.446379 7.9721484 0.02303615 0
18.598461 7.9682484 -0.55770832 0
18.584398 7.9421864 -0.1236315 0
18.620651 7.9397383 -0.63002145 0
18.677067 7.8830857 -0.32176158 0
18.625254 7.9406028 0.086079545 0
18.608982 8.09303 0.12610675 0
18.856274 7.9241738 -0.62729669 0
18.844877 7.9234605 -0.46150884 0
18.730925 8.0754251 -0.51669562 0
18.858047 7.8382359 -0.26571205 0
18.824631 7.9335122 -0.31430766 0
18.850628 7.9353828 -0.10635623 0
18.826103 7.9896755 0.081020266 0
19.090464 7.9225101 -0.64591354 0
19.078766 7.8378329 -0.54188871 0
19.13361 7.8813066 -0.45199841 0
19.069498 7.834343 -0.22744864 0
19.118279 7.9077792 -0.21900037 0
19.000423 8.0380583 0.14364307 0
19.183908 7.8735394 -0.49695945 0
19.163473 8.0848265 -0.13794442 0
19.328693 8.0013533 -0.46754074 0
19.247179 7.9283471 -0.29907513 0
19.278559 7.858254 -0.097657137 0
19.230947 7.9560275 -0.10607675 0
19.25839 7.8501244 0.021455521 0
19.245422 7.9933934 0.10141575 0
19.418062 7.809299 -0.68092847 0
19.475258 8.0148897 -0.67430973 0
19.474798 7.9383416 -0.56208545 0
19.482801 7.8608451 -0.28391054 0
19.408276 7.9908767 -0.21158746 0
19.417133 7.8392553 0.091492154 0
19.399918 7.976666 0.10529798 0
19.352715 7.8797574 0.23683314 0
19.606724 7.8025703 -0.33847934 0
19.609518 7.9902701 0.019199409 0
19.7633 7.8725839 -0.23074259 0
19.88442 7.9493561 -0.71270877 0
19.905987 7.9461551 -0.46133286 0
19.930706 8.0011978 -0.17538111 0
19.846813 7.8009152 0.025295548 0
19.831488 7.9789753 0.08859548 0
19.997124 7.8456945 -0.64890718 0
19.981586 8.028759 -0.68140244 0
20.051056 7.8622584 -0.53408587 0
20.040319 7.9806314 -0.54180688 0
20.020752 7.8542905 -0.32709906 0
20.016975 7.9521074 -0.28259605 0
20.043261 7.8660398 -0.19558109 0
20.064289 7.954267 -0.095858455 0
20.062531 7.9763551 0.099106751 0
20.105898 7.8176184 0.049388342 0
20.177286 7.8265791 -0.64675307 0
20.147156 7.9233532 -0.63910055 0
20.18898 7.8796115 -0.49005648 0
20.288488 7.8462582 -0.33096564 0
20.253595 7.9713111 -0.28396821 0
20.327429 7.9033351 -0.1090965 0
20.261908 7.9794698 -0.11830116 0
20.237818 7.9805064 0.10966627 0
20.394218 7.8327765 -0.24039502 0
20.494114 7.8348026 -0.076848395 0
20.44566 7.857923 0.093281172 0
20.501816 7.9703436 0.050636012 0
20.672934 8.0632677 -0.75483125 0
20.684391 8.0612068 -0.58189893 0
20.690138 7.8560643 -0.30086279 0
20.655958 8.0232944 -0.27686778 0
20.628548 7.8117695 -0.014975375 0
20.719172 7.8317881 -0.71803415 0
20.851761 7.8128748 -0.74641931 0
20.976896 7.9989104 -0.87112331 0
20.981522 7.8835001 -0.39522663 0
21.028612 7.8372273 -0.4216547 0
21.198061 7.8473582 -0.81664747 0
21.266241 7.80054 -0.70492578 0
21.136469 8.0058193 -0.68893117 0
21.274796 7.8502383 -0.24365701 0
21.286139 7.8065534 0.099032 0
21.466993 7.953063 -0.81162941 0
21.50424 7.8309574 -0.30880159 0
21.36491 8.068429 -0.14812429 0
21.410688 7.838274 0.099074878 0
21.588543 7.8698783 -0.013460879 0
21.604639 7.8272448 -0.59525132 0
21.885559 7.9389725 -0.37900585 0
22.164143 8.0149374 -0.83890587 0
22.307184 7.8043184 -0.13716507 0
22.396193 7.8891277 -0.23159759 0
22.387594 7.8597116 0.041524675 0
22.608826 7.8679948 -0.82600296 0
22.604717 7.9449482 -0.74910438 0
22.622183 7.9286633 -0.30975956 0
22.668049 7.951611 0.0879343 0
22.640835 8.097517 0.072665334 0
22.911827 7.9868116 -0.40486273 0
0.0019615591 8.3703718 -0.28556022 0
0.022934943 8.3146095 -0.072952397 0
0.033325136 8.3242674 0.0974494 0
0.030929834 8.3420219 0.28679711 0
0.18484497 8.1126356 -0.6694544 0
0.17318362 8.2739792 -0.69833976 0
0.11455801 8.3938637 -0.066791505 0
0.11398089 8.3205528 0.16956054 0
0.12650001 8.3673849 0.2862252 0
0.34714013 8.2758017 -0.63021696 0
0.59167564 8.3199072 -0.66101539 0
0.62529087 8.106493 -0.61377329 0
0.77641642 8.1782084 -0.66073459 0
0.7293117 8.3428726 -0.33466709 0
0.97344089 8.2497158 -0.58038944 0
12.453974 8.1128559 -0.61181843 0
12.467818 8.1474037 -0.58596206 0
12.434286 8.2412014 -0.56247103 0
12.64172 8.204174 -0.56742746 0
12.714084 8.1622839 -0.1605781 0
12.684222 8.2659435 -0.160503 0
12.811317 8.1614532 -0.60432273 0
12.824946 8.18608 -0.59831166 0
12.815744 8.3678341 -0.48577935 0
12.782137 8.2477341 -0.2076226 0
12.802068 8.391942 -0.29782119 0
12.823294 8.1638536 0.22471973 0
12.859447 8.3962631 0.26465195 0
13.015748 8.380393 -0.61450309 0
12.973773 8.3875961 -0.48792425 0
13.185703 8.1433535 -0.61880726 0
13.58253 8.1608076 -0.6609599 0
14.714117 8.292347 -0.68911743 0
14.857387 8.2534113 -0.68324608 0
14.943575 8.1162701 -0.67709178 0
14.989903 8.1930323 -0.68083781 0
15.28772 8.2956133 -0.68195754 0
15.224244 8.3474216 -0.18962114 0
15.433795 8.2413692 -0.69274044 0
15.66882 8.2911921 -0.66055316 0
15.800774 8.3023129 -0.46665609 0
15.883895 8.3868809 -0.37592408 0
15.909187 8.2975979 -0.72397262 0
15.999958 8.2572565 -0.6909703 0
16.236401 8.2851629 -0.64233375 0
16.225811 8.2613325 -0.34316722 0
16.228252 8.3456287 0.12224139 0
16.442034 8.3090687 -0.63620502 0
16.393761 8.1468658 -0.4756068 0
16.432741 8.3427639 -0.55308264 0
16.43362 8.3279333 -0.30585408 0
